5.586698055267333984e+00,5.617961883544921875e+00,5.649268627166748047e+00,5.679613590240478516e+00,5.709300994873046875e+00,5.735432147979736328e+00,5.759528160095214844e+00,5.784223556518554688e+00,5.806666374206542969e+00,5.828648090362548828e+00,5.849967479705810547e+00,5.873169422149658203e+00,5.899515151977539062e+00,5.925989151000976562e+00,5.952371120452880859e+00,5.976162910461425781e+00,6.001203060150146484e+00,6.026701450347900391e+00,6.051519870758056641e+00,6.079380035400390625e+00,6.107102870941162109e+00,6.131494045257568359e+00,6.156116962432861328e+00,6.178450107574462891e+00,6.198891639709472656e+00,6.219351291656494141e+00,6.239134311676025391e+00,6.259510993957519531e+00,6.279898166656494141e+00,6.298582077026367188e+00,6.313648223876953125e+00,6.326127529144287109e+00,6.334276676177978516e+00,6.342059135437011719e+00,6.344205856323242188e+00,6.352663516998291016e+00,6.417639732360839844e+00,6.438396453857421875e+00,6.448842048645019531e+00,6.454406738281250000e+00,6.464366912841796875e+00,6.471601486206054688e+00,6.474967479705810547e+00,6.477473735809326172e+00,6.478452682495117188e+00,6.482718467712402344e+00,6.488029003143310547e+00,6.492085456848144531e+00,6.497740268707275391e+00,6.502380847930908203e+00,6.506485462188720703e+00,6.513803482055664062e+00,6.521447658538818359e+00,6.528810977935791016e+00,6.538359165191650391e+00,6.544764518737792969e+00,6.549437999725341797e+00,6.552298069000244141e+00,6.553683280944824219e+00,6.553976058959960938e+00,6.548441886901855469e+00,6.541055679321289062e+00,6.532866954803466797e+00,6.524321079254150391e+00,6.517192840576171875e+00,6.510099411010742188e+00,6.502308845520019531e+00,6.494230747222900391e+00,6.487942695617675781e+00,6.482416152954101562e+00,6.478001117706298828e+00,6.474330902099609375e+00,6.471889495849609375e+00,6.467659950256347656e+00,6.463931083679199219e+00,6.460980892181396484e+00,6.457890033721923828e+00,6.455611705780029297e+00,6.452182769775390625e+00,6.452136993408203125e+00,6.448915958404541016e+00,6.444802284240722656e+00,6.439557552337646484e+00,6.449682235717773438e+00,6.464998722076416016e+00,6.465188026428222656e+00,6.461052894592285156e+00,6.446854114532470703e+00,6.438369274139404297e+00,6.429005146026611328e+00,6.425119400024414062e+00,6.415933609008789062e+00,6.394782066345214844e+00,6.395632743835449219e+00,6.399112701416015625e+00,6.393397808074951172e+00,6.381204605102539062e+00,6.354282379150390625e+00,6.349691867828369141e+00,6.356462001800537109e+00,6.323888778686523438e+00,6.291505813598632812e+00,6.270406723022460938e+00,6.245235443115234375e+00,6.220911979675292969e+00,6.207568168640136719e+00,6.194482326507568359e+00,6.169908523559570312e+00,6.147820949554443359e+00,6.124138832092285156e+00,6.111138343811035156e+00,6.104108333587646484e+00,6.085695266723632812e+00,6.077953338623046875e+00,6.062835216522216797e+00,6.048974037170410156e+00,6.037469387054443359e+00,6.026581287384033203e+00,6.015426635742187500e+00
5.587177276611328125e+00,5.618931293487548828e+00,5.649942398071289062e+00,5.680546760559082031e+00,5.710717201232910156e+00,5.735814094543457031e+00,5.760156154632568359e+00,5.784009933471679688e+00,5.806982517242431641e+00,5.829805374145507812e+00,5.852222919464111328e+00,5.877023696899414062e+00,5.903931140899658203e+00,5.930528640747070312e+00,5.958467483520507812e+00,5.983283042907714844e+00,6.009487152099609375e+00,6.036223888397216797e+00,6.062277793884277344e+00,6.091190814971923828e+00,6.120047092437744141e+00,6.144930839538574219e+00,6.169192314147949219e+00,6.193017482757568359e+00,6.214249134063720703e+00,6.236926078796386719e+00,6.257373809814453125e+00,6.279488563537597656e+00,6.299662590026855469e+00,6.317810058593750000e+00,6.333600997924804688e+00,6.346372604370117188e+00,6.354054450988769531e+00,6.363750457763671875e+00,6.367163181304931641e+00,6.380386829376220703e+00,6.444252967834472656e+00,6.462570190429687500e+00,6.472631931304931641e+00,6.477341175079345703e+00,6.480761051177978516e+00,6.485128879547119141e+00,6.487185001373291016e+00,6.488958358764648438e+00,6.492443084716796875e+00,6.496229648590087891e+00,6.501158237457275391e+00,6.505692005157470703e+00,6.510723114013671875e+00,6.514175891876220703e+00,6.517510890960693359e+00,6.523878574371337891e+00,6.531092643737792969e+00,6.537835121154785156e+00,6.546364784240722656e+00,6.552261352539062500e+00,6.555502414703369141e+00,6.557941913604736328e+00,6.559055805206298828e+00,6.558532714843750000e+00,6.552183628082275391e+00,6.544600963592529297e+00,6.537454128265380859e+00,6.529802799224853516e+00,6.524034500122070312e+00,6.517231941223144531e+00,6.509802341461181641e+00,6.502188682556152344e+00,6.496259689331054688e+00,6.493761062622070312e+00,6.490610122680664062e+00,6.486245632171630859e+00,6.482953548431396484e+00,6.478701114654541016e+00,6.475422382354736328e+00,6.472178936004638672e+00,6.470411777496337891e+00,6.463765144348144531e+00,6.462181568145751953e+00,6.464061260223388672e+00,6.462234020233154297e+00,6.456915378570556641e+00,6.452109813690185547e+00,6.468711376190185547e+00,6.485258579254150391e+00,6.492376804351806641e+00,6.492228984832763672e+00,6.476291656494140625e+00,6.468041896820068359e+00,6.460385799407958984e+00,6.448757171630859375e+00,6.420839309692382812e+00,6.405626773834228516e+00,6.394165515899658203e+00,6.419575691223144531e+00,6.445751190185546875e+00,6.454502582550048828e+00,6.438457012176513672e+00,6.403086662292480469e+00,6.366518497467041016e+00,6.358354568481445312e+00,6.341035366058349609e+00,6.308979034423828125e+00,6.285306453704833984e+00,6.257150650024414062e+00,6.241705417633056641e+00,6.230986118316650391e+00,6.210793495178222656e+00,6.197779655456542969e+00,6.175790309906005859e+00,6.160112380981445312e+00,6.140263557434082031e+00,6.120103359222412109e+00,6.109843730926513672e+00,6.088927745819091797e+00,6.078733444213867188e+00,6.068574428558349609e+00,6.057357788085937500e+00,6.043176651000976562e+00
5.587197303771972656e+00,5.619856357574462891e+00,5.651358127593994141e+00,5.682490348815917969e+00,5.712680816650390625e+00,5.738183498382568359e+00,5.762215137481689453e+00,5.787430286407470703e+00,5.810706615447998047e+00,5.834032535552978516e+00,5.858175277709960938e+00,5.882596492767333984e+00,5.908888339996337891e+00,5.935875415802001953e+00,5.964074134826660156e+00,5.989676475524902344e+00,6.017010688781738281e+00,6.045030117034912109e+00,6.072468280792236328e+00,6.101032257080078125e+00,6.130749702453613281e+00,6.155818462371826172e+00,6.181093215942382812e+00,6.205202102661132812e+00,6.227114677429199219e+00,6.250270843505859375e+00,6.272743701934814453e+00,6.294858455657958984e+00,6.316840648651123047e+00,6.336516857147216797e+00,6.353587150573730469e+00,6.366357803344726562e+00,6.374839305877685547e+00,6.387144565582275391e+00,6.392943859100341797e+00,6.409803390502929688e+00,6.464354038238525391e+00,6.479661464691162109e+00,6.488945960998535156e+00,6.493342876434326172e+00,6.496146202087402344e+00,6.499611377716064453e+00,6.501703262329101562e+00,6.502378940582275391e+00,6.504370689392089844e+00,6.507458686828613281e+00,6.510187149047851562e+00,6.513298988342285156e+00,6.517420768737792969e+00,6.520440101623535156e+00,6.523380279541015625e+00,6.529782295227050781e+00,6.537929534912109375e+00,6.544376850128173828e+00,6.551892280578613281e+00,6.556980609893798828e+00,6.558923721313476562e+00,6.560288906097412109e+00,6.560935497283935547e+00,6.558447360992431641e+00,6.554366588592529297e+00,6.548980236053466797e+00,6.543195724487304688e+00,6.539249897003173828e+00,6.534384727478027344e+00,6.529057025909423828e+00,6.523374080657958984e+00,6.516565322875976562e+00,6.510832309722900391e+00,6.509520053863525391e+00,6.502501010894775391e+00,6.500435352325439453e+00,6.495433807373046875e+00,6.488789558410644531e+00,6.486093044281005859e+00,6.482779979705810547e+00,6.482635498046875000e+00,6.474613666534423828e+00,6.473720073699951172e+00,6.475113391876220703e+00,6.474081993103027344e+00,6.468658924102783203e+00,6.457587718963623047e+00,6.472761154174804688e+00,6.500714778900146484e+00,6.531087875366210938e+00,6.546689510345458984e+00,6.545946121215820312e+00,6.549974918365478516e+00,6.554266929626464844e+00,6.569877147674560547e+00,6.548093318939208984e+00,6.531302928924560547e+00,6.537395000457763672e+00,6.522252082824707031e+00,6.507670402526855469e+00,6.505948543548583984e+00,6.481737136840820312e+00,6.457880020141601562e+00,6.430102348327636719e+00,6.397314548492431641e+00,6.380909919738769531e+00,6.358006477355957031e+00,6.336371898651123047e+00,6.311495304107666016e+00,6.292089462280273438e+00,6.276567459106445312e+00,6.259231090545654297e+00,6.248245716094970703e+00,6.223857879638671875e+00,6.206804275512695312e+00,6.188585281372070312e+00,6.172101974487304688e+00,6.163581371307373047e+00,6.139233589172363281e+00,6.126674652099609375e+00,6.111075401306152344e+00,6.098709106445312500e+00,6.082041740417480469e+00
5.588204383850097656e+00,5.620974063873291016e+00,5.652799606323242188e+00,5.684230327606201172e+00,5.714297294616699219e+00,5.740105152130126953e+00,5.764402389526367188e+00,5.790351390838623047e+00,5.814621448516845703e+00,5.838529586791992188e+00,5.863351821899414062e+00,5.888800621032714844e+00,5.915246009826660156e+00,5.942374229431152344e+00,5.970606803894042969e+00,5.996869087219238281e+00,6.024215698242187500e+00,6.051710128784179688e+00,6.079359054565429688e+00,6.108499050140380859e+00,6.138818264007568359e+00,6.164480209350585938e+00,6.189631938934326172e+00,6.213984489440917969e+00,6.236122608184814453e+00,6.259944438934326172e+00,6.283258438110351562e+00,6.307602405548095703e+00,6.331867218017578125e+00,6.352218627929687500e+00,6.370965480804443359e+00,6.384383678436279297e+00,6.394563198089599609e+00,6.408645629882812500e+00,6.418280124664306641e+00,6.437900543212890625e+00,6.474164962768554688e+00,6.491380691528320312e+00,6.500377655029296875e+00,6.505253314971923828e+00,6.509573459625244141e+00,6.512785434722900391e+00,6.514857292175292969e+00,6.515960693359375000e+00,6.516688346862792969e+00,6.518687248229980469e+00,6.519766807556152344e+00,6.521898269653320312e+00,6.525485992431640625e+00,6.526777267456054688e+00,6.528082370758056641e+00,6.533274650573730469e+00,6.541255474090576172e+00,6.546809673309326172e+00,6.552539825439453125e+00,6.556263446807861328e+00,6.558776378631591797e+00,6.559527397155761719e+00,6.561061382293701172e+00,6.558303833007812500e+00,6.553864002227783203e+00,6.551305770874023438e+00,6.549006462097167969e+00,6.546655178070068359e+00,6.542619705200195312e+00,6.539754867553710938e+00,6.538833141326904297e+00,6.533126831054687500e+00,6.532075405120849609e+00,6.530693531036376953e+00,6.524602890014648438e+00,6.522930145263671875e+00,6.516838550567626953e+00,6.511075019836425781e+00,6.508018970489501953e+00,6.512799263000488281e+00,6.512651443481445312e+00,6.505829334259033203e+00,6.500128269195556641e+00,6.502827167510986328e+00,6.509126186370849609e+00,6.510032176971435547e+00,6.512972831726074219e+00,6.531376361846923828e+00,6.560883045196533203e+00,6.614875316619873047e+00,6.661153793334960938e+00,6.674195766448974609e+00,6.672574996948242188e+00,6.659855365753173828e+00,6.649775981903076172e+00,6.641996860504150391e+00,6.626929759979248047e+00,6.612812042236328125e+00,6.594725131988525391e+00,6.576372623443603516e+00,6.558187961578369141e+00,6.536034584045410156e+00,6.515973091125488281e+00,6.491549491882324219e+00,6.462749481201171875e+00,6.437685489654541016e+00,6.406791210174560547e+00,6.380676746368408203e+00,6.353932380676269531e+00,6.329783439636230469e+00,6.319586753845214844e+00,6.307320594787597656e+00,6.288450241088867188e+00,6.265862941741943359e+00,6.245069503784179688e+00,6.231054306030273438e+00,6.220249652862548828e+00,6.206216812133789062e+00,6.184332370758056641e+00,6.165915489196777344e+00,6.150837898254394531e+00,6.145978450775146484e+00,6.133554458618164062e+00
5.588321685791015625e+00,5.621289253234863281e+00,5.653253078460693359e+00,5.685769081115722656e+00,5.715997219085693359e+00,5.742505550384521484e+00,5.767383575439453125e+00,5.792364120483398438e+00,5.817356586456298828e+00,5.842874526977539062e+00,5.867783069610595703e+00,5.893960475921630859e+00,5.920719146728515625e+00,5.947999477386474609e+00,5.976594924926757812e+00,6.002953052520751953e+00,6.030503749847412109e+00,6.058628559112548828e+00,6.086894512176513672e+00,6.116189956665039062e+00,6.147164821624755859e+00,6.173063278198242188e+00,6.198658943176269531e+00,6.223067760467529297e+00,6.245288848876953125e+00,6.269114971160888672e+00,6.292545318603515625e+00,6.317727565765380859e+00,6.344282150268554688e+00,6.365883350372314453e+00,6.386108875274658203e+00,6.402239799499511719e+00,6.415183067321777344e+00,6.428101062774658203e+00,6.437703132629394531e+00,6.453668117523193359e+00,6.480084419250488281e+00,6.495844841003417969e+00,6.503769397735595703e+00,6.511741161346435547e+00,6.516939640045166016e+00,6.520368576049804688e+00,6.522878646850585938e+00,6.522278308868408203e+00,6.522232532501220703e+00,6.523470878601074219e+00,6.523932456970214844e+00,6.524762630462646484e+00,6.528118133544921875e+00,6.529407501220703125e+00,6.531308174133300781e+00,6.535679817199707031e+00,6.542736053466796875e+00,6.547832012176513672e+00,6.552847385406494141e+00,6.557261943817138672e+00,6.561917304992675781e+00,6.564929008483886719e+00,6.566792488098144531e+00,6.567205429077148438e+00,6.563003540039062500e+00,6.561934947967529297e+00,6.561319351196289062e+00,6.560290336608886719e+00,6.556692600250244141e+00,6.556008815765380859e+00,6.560354709625244141e+00,6.557283401489257812e+00,6.558351993560791016e+00,6.556286811828613281e+00,6.549425125122070312e+00,6.550553798675537109e+00,6.545612812042236328e+00,6.538925647735595703e+00,6.539691925048828125e+00,6.553975105285644531e+00,6.565475940704345703e+00,6.573534488677978516e+00,6.582736968994140625e+00,6.592368125915527344e+00,6.635818958282470703e+00,6.688533782958984375e+00,6.715892791748046875e+00,6.741079330444335938e+00,6.755270004272460938e+00,6.760585308074951172e+00,6.766416072845458984e+00,6.761333465576171875e+00,6.750179290771484375e+00,6.730720043182373047e+00,6.717793464660644531e+00,6.694477081298828125e+00,6.675656795501708984e+00,6.667057991027832031e+00,6.643282413482666016e+00,6.627139091491699219e+00,6.604425430297851562e+00,6.578814029693603516e+00,6.556889057159423828e+00,6.537202835083007812e+00,6.513775825500488281e+00,6.489149093627929688e+00,6.461755752563476562e+00,6.434675216674804688e+00,6.409572601318359375e+00,6.387460231781005859e+00,6.374932289123535156e+00,6.354797363281250000e+00,6.331586360931396484e+00,6.304190158843994141e+00,6.268761157989501953e+00,6.253160953521728516e+00,6.241553306579589844e+00,6.237808704376220703e+00,6.238173007965087891e+00,6.217571258544921875e+00,6.200398445129394531e+00,6.204501152038574219e+00,6.205272197723388672e+00
5.588697910308837891e+00,5.622073173522949219e+00,5.653275966644287109e+00,5.685400485992431641e+00,5.716232776641845703e+00,5.742943763732910156e+00,5.769583702087402344e+00,5.795950889587402344e+00,5.821835994720458984e+00,5.847509384155273438e+00,5.872580528259277344e+00,5.898866653442382812e+00,5.926031112670898438e+00,5.953157901763916016e+00,5.981583118438720703e+00,6.009142398834228516e+00,6.036536216735839844e+00,6.064958095550537109e+00,6.094829082489013672e+00,6.124553680419921875e+00,6.155272006988525391e+00,6.182263851165771484e+00,6.207776546478271484e+00,6.233175754547119141e+00,6.256586074829101562e+00,6.280217170715332031e+00,6.304595947265625000e+00,6.330594539642333984e+00,6.357252597808837891e+00,6.380324840545654297e+00,6.402468204498291016e+00,6.420791625976562500e+00,6.434965610504150391e+00,6.445645809173583984e+00,6.453767299652099609e+00,6.466359138488769531e+00,6.484226703643798828e+00,6.495082855224609375e+00,6.504218101501464844e+00,6.512818813323974609e+00,6.518671989440917969e+00,6.524201869964599609e+00,6.529598236083984375e+00,6.528898715972900391e+00,6.528186798095703125e+00,6.528908729553222656e+00,6.530473709106445312e+00,6.531923294067382812e+00,6.535806655883789062e+00,6.539097309112548828e+00,6.542016506195068359e+00,6.546761512756347656e+00,6.553955078125000000e+00,6.558116436004638672e+00,6.562487125396728516e+00,6.567726612091064453e+00,6.574697494506835938e+00,6.580247879028320312e+00,6.584111213684082031e+00,6.586751937866210938e+00,6.586791992187500000e+00,6.586925506591796875e+00,6.585719108581542969e+00,6.583360195159912109e+00,6.580806732177734375e+00,6.585217475891113281e+00,6.590523719787597656e+00,6.592646598815917969e+00,6.591134071350097656e+00,6.584824085235595703e+00,6.584143638610839844e+00,6.592851161956787109e+00,6.589387416839599609e+00,6.598052501678466797e+00,6.610885143280029297e+00,6.646600246429443359e+00,6.711529731750488281e+00,6.757326126098632812e+00,6.794648647308349609e+00,6.818448066711425781e+00,6.835327625274658203e+00,6.839027881622314453e+00,6.852058887481689453e+00,6.851884841918945312e+00,6.844940185546875000e+00,6.844534873962402344e+00,6.838531017303466797e+00,6.822385787963867188e+00,6.814595222473144531e+00,6.801047325134277344e+00,6.789952278137207031e+00,6.771409511566162109e+00,6.743865489959716797e+00,6.718639373779296875e+00,6.692646026611328125e+00,6.673581600189208984e+00,6.649970531463623047e+00,6.627123832702636719e+00,6.602587223052978516e+00,6.585054397583007812e+00,6.565322399139404297e+00,6.543784618377685547e+00,6.524300098419189453e+00,6.501998901367187500e+00,6.482271671295166016e+00,6.462578296661376953e+00,6.442600250244140625e+00,6.420784473419189453e+00,6.397857666015625000e+00,6.364303588867187500e+00,6.321173667907714844e+00,6.309341430664062500e+00,6.299236297607421875e+00,6.318685531616210938e+00,6.344822883605957031e+00,6.319296836853027344e+00,6.293956756591796875e+00,6.302549362182617188e+00,6.327105045318603516e+00
5.586815357208251953e+00,5.619340419769287109e+00,5.651587486267089844e+00,5.684403896331787109e+00,5.713858604431152344e+00,5.740128993988037109e+00,5.767345428466796875e+00,5.794848442077636719e+00,5.823808670043945312e+00,5.852975368499755859e+00,5.877714633941650391e+00,5.904124736785888672e+00,5.932711124420166016e+00,5.960910797119140625e+00,5.989654064178466797e+00,6.018249511718750000e+00,6.045745372772216797e+00,6.075616836547851562e+00,6.106081485748291016e+00,6.137147426605224609e+00,6.169171333312988281e+00,6.196943759918212891e+00,6.223233699798583984e+00,6.247892379760742188e+00,6.270427703857421875e+00,6.293365955352783203e+00,6.316732406616210938e+00,6.343572616577148438e+00,6.371523380279541016e+00,6.394935131072998047e+00,6.417792320251464844e+00,6.437301158905029297e+00,6.450877189636230469e+00,6.461083889007568359e+00,6.470483303070068359e+00,6.480780124664306641e+00,6.492833137512207031e+00,6.501337051391601562e+00,6.511722564697265625e+00,6.521068572998046875e+00,6.529183387756347656e+00,6.538486957550048828e+00,6.546844482421875000e+00,6.548346996307373047e+00,6.549256801605224609e+00,6.552989482879638672e+00,6.557056903839111328e+00,6.560435295104980469e+00,6.566124439239501953e+00,6.570392608642578125e+00,6.572802543640136719e+00,6.578080654144287109e+00,6.585041999816894531e+00,6.590399265289306641e+00,6.593971729278564453e+00,6.602381706237792969e+00,6.610922336578369141e+00,6.617493152618408203e+00,6.620775222778320312e+00,6.624216079711914062e+00,6.624991893768310547e+00,6.630270957946777344e+00,6.631526470184326172e+00,6.630218982696533203e+00,6.625996112823486328e+00,6.624920845031738281e+00,6.638441085815429688e+00,6.650320053100585938e+00,6.658442974090576172e+00,6.669202804565429688e+00,6.692380428314208984e+00,6.728117465972900391e+00,6.789234638214111328e+00,6.823443412780761719e+00,6.858234882354736328e+00,6.881648063659667969e+00,6.893092155456542969e+00,6.907383918762207031e+00,6.920279979705810547e+00,6.923459529876708984e+00,6.924846649169921875e+00,6.921164989471435547e+00,6.912988662719726562e+00,6.902367115020751953e+00,6.898474693298339844e+00,6.894359588623046875e+00,6.884120941162109375e+00,6.876151561737060547e+00,6.866162776947021484e+00,6.856660842895507812e+00,6.845903873443603516e+00,6.827155590057373047e+00,6.803892612457275391e+00,6.784386157989501953e+00,6.761909961700439453e+00,6.737348079681396484e+00,6.713351249694824219e+00,6.689071178436279297e+00,6.662215709686279297e+00,6.644289493560791016e+00,6.623834609985351562e+00,6.604712009429931641e+00,6.586417198181152344e+00,6.568400382995605469e+00,6.549942493438720703e+00,6.536464214324951172e+00,6.513533115386962891e+00,6.496846199035644531e+00,6.484270572662353516e+00,6.472851753234863281e+00,6.474686145782470703e+00,6.514277935028076172e+00,6.555673599243164062e+00,6.615101337432861328e+00,6.664226531982421875e+00,6.632398605346679688e+00,6.586698055267333984e+00,6.554986953735351562e+00,6.533072471618652344e+00
5.586262702941894531e+00,5.618824005126953125e+00,5.651684761047363281e+00,5.684965610504150391e+00,5.716046810150146484e+00,5.742301464080810547e+00,5.769350051879882812e+00,5.797853946685791016e+00,5.828582286834716797e+00,5.859845638275146484e+00,5.888607978820800781e+00,5.915828704833984375e+00,5.944338798522949219e+00,5.972162246704101562e+00,6.001174926757812500e+00,6.028989315032958984e+00,6.057340621948242188e+00,6.087807178497314453e+00,6.119315147399902344e+00,6.151423454284667969e+00,6.183477401733398438e+00,6.211667537689208984e+00,6.238084793090820312e+00,6.262359142303466797e+00,6.284885406494140625e+00,6.307392120361328125e+00,6.329826831817626953e+00,6.356970787048339844e+00,6.385105609893798828e+00,6.409559249877929688e+00,6.432180881500244141e+00,6.453013420104980469e+00,6.467501640319824219e+00,6.478754043579101562e+00,6.488399028778076172e+00,6.498173713684082031e+00,6.508479595184326172e+00,6.513174533843994141e+00,6.522973060607910156e+00,6.533958911895751953e+00,6.547201633453369141e+00,6.559189319610595703e+00,6.568849563598632812e+00,6.571481227874755859e+00,6.576648712158203125e+00,6.583859443664550781e+00,6.591088294982910156e+00,6.596400737762451172e+00,6.601922512054443359e+00,6.609228610992431641e+00,6.613424301147460938e+00,6.619691371917724609e+00,6.626869678497314453e+00,6.631952285766601562e+00,6.633924961090087891e+00,6.644598007202148438e+00,6.655377864837646484e+00,6.665345668792724609e+00,6.666548252105712891e+00,6.666772365570068359e+00,6.661775112152099609e+00,6.674764633178710938e+00,6.691621780395507812e+00,6.693366050720214844e+00,6.697628974914550781e+00,6.698268890380859375e+00,6.739516735076904297e+00,6.795098781585693359e+00,6.851797103881835938e+00,6.898749351501464844e+00,6.946217060089111328e+00,6.971319198608398438e+00,6.983677387237548828e+00,6.999887466430664062e+00,7.002571582794189453e+00,7.003529071807861328e+00,6.996873378753662109e+00,6.988801956176757812e+00,6.992877006530761719e+00,6.986380100250244141e+00,6.983161449432373047e+00,6.982587337493896484e+00,6.978538990020751953e+00,6.964076519012451172e+00,6.955509185791015625e+00,6.942507266998291016e+00,6.925839424133300781e+00,6.917795181274414062e+00,6.903751373291015625e+00,6.895320415496826172e+00,6.885012626647949219e+00,6.869429111480712891e+00,6.855719566345214844e+00,6.844137668609619141e+00,6.831395149230957031e+00,6.818272113800048828e+00,6.804604530334472656e+00,6.783502101898193359e+00,6.764611244201660156e+00,6.750522613525390625e+00,6.733960151672363281e+00,6.714391708374023438e+00,6.696485996246337891e+00,6.681067466735839844e+00,6.671658515930175781e+00,6.678433895111083984e+00,6.693938732147216797e+00,6.716753005981445312e+00,6.759181976318359375e+00,6.789062500000000000e+00,6.825268745422363281e+00,6.866585254669189453e+00,6.893042087554931641e+00,6.912823677062988281e+00,6.911766529083251953e+00,6.820608139038085938e+00,6.755392551422119141e+00,6.663438796997070312e+00,6.622905254364013672e+00
5.560723304748535156e+00,5.594068527221679688e+00,5.628201961517333984e+00,5.663013935089111328e+00,5.698266983032226562e+00,5.730103969573974609e+00,5.761960506439208984e+00,5.795630455017089844e+00,5.828373432159423828e+00,5.861313343048095703e+00,5.895023345947265625e+00,5.926748275756835938e+00,5.955749034881591797e+00,5.983462333679199219e+00,6.011491298675537109e+00,6.038750171661376953e+00,6.066817760467529297e+00,6.097135543823242188e+00,6.128121852874755859e+00,6.160603523254394531e+00,6.193238735198974609e+00,6.222194194793701172e+00,6.249719619750976562e+00,6.273777961730957031e+00,6.296253204345703125e+00,6.319467067718505859e+00,6.342275619506835938e+00,6.370730400085449219e+00,6.399597644805908203e+00,6.425542831420898438e+00,6.448745727539062500e+00,6.470063686370849609e+00,6.487111091613769531e+00,6.502832412719726562e+00,6.515542507171630859e+00,6.525767803192138672e+00,6.538210391998291016e+00,6.545931816101074219e+00,6.558155536651611328e+00,6.570352077484130859e+00,6.583226203918457031e+00,6.594954967498779297e+00,6.608061313629150391e+00,6.614233493804931641e+00,6.624429225921630859e+00,6.635134696960449219e+00,6.644899845123291016e+00,6.653846263885498047e+00,6.661128044128417969e+00,6.667860031127929688e+00,6.670160293579101562e+00,6.675609588623046875e+00,6.681184291839599609e+00,6.687780857086181641e+00,6.688415050506591797e+00,6.692546367645263672e+00,6.701941490173339844e+00,6.721989631652832031e+00,6.733638286590576172e+00,6.736311435699462891e+00,6.745804309844970703e+00,6.772126674652099609e+00,6.811801910400390625e+00,6.861937999725341797e+00,6.903254508972167969e+00,6.938165187835693359e+00,6.974688529968261719e+00,7.006346225738525391e+00,7.031616687774658203e+00,7.059779644012451172e+00,7.082437038421630859e+00,7.101366043090820312e+00,7.110033988952636719e+00,7.103764057159423828e+00,7.095352172851562500e+00,7.085258960723876953e+00,7.075541496276855469e+00,7.065489292144775391e+00,7.057831287384033203e+00,7.044752120971679688e+00,7.035647392272949219e+00,7.033222198486328125e+00,7.027980804443359375e+00,7.012261867523193359e+00,7.002800464630126953e+00,6.986651420593261719e+00,6.967738151550292969e+00,6.953307628631591797e+00,6.940910816192626953e+00,6.941812038421630859e+00,6.935099601745605469e+00,6.926803588867187500e+00,6.918988227844238281e+00,6.915743827819824219e+00,6.917382717132568359e+00,6.918188095092773438e+00,6.923010349273681641e+00,6.915136337280273438e+00,6.913801670074462891e+00,6.918930530548095703e+00,6.926970958709716797e+00,6.939396381378173828e+00,6.955102920532226562e+00,6.968744277954101562e+00,6.984455108642578125e+00,6.995826244354248047e+00,6.998051166534423828e+00,6.995448112487792969e+00,6.996634483337402344e+00,6.991328716278076172e+00,6.986070632934570312e+00,6.997495651245117188e+00,7.011505126953125000e+00,7.026399135589599609e+00,7.020169734954833984e+00,6.926921844482421875e+00,6.836096763610839844e+00,6.694799423217773438e+00,6.656265735626220703e+00
5.487998008728027344e+00,5.523893356323242188e+00,5.562033176422119141e+00,5.602536201477050781e+00,5.645675182342529297e+00,5.688330173492431641e+00,5.728964328765869141e+00,5.768349647521972656e+00,5.805219650268554688e+00,5.843141078948974609e+00,5.878255844116210938e+00,5.914264678955078125e+00,5.949420928955078125e+00,5.983587741851806641e+00,6.015394687652587891e+00,6.045763015747070312e+00,6.076180458068847656e+00,6.106466770172119141e+00,6.137770175933837891e+00,6.172004222869873047e+00,6.203657627105712891e+00,6.233568668365478516e+00,6.262098789215087891e+00,6.285726547241210938e+00,6.308271884918212891e+00,6.331801891326904297e+00,6.355392456054687500e+00,6.384495735168457031e+00,6.415130138397216797e+00,6.440686225891113281e+00,6.465457916259765625e+00,6.488492965698242188e+00,6.509404182434082031e+00,6.529697895050048828e+00,6.547136306762695312e+00,6.562086105346679688e+00,6.578960418701171875e+00,6.590695381164550781e+00,6.605481147766113281e+00,6.623049259185791016e+00,6.634045600891113281e+00,6.650305747985839844e+00,6.659879684448242188e+00,6.664830207824707031e+00,6.679019927978515625e+00,6.688998222351074219e+00,6.697620868682861328e+00,6.709383010864257812e+00,6.718677520751953125e+00,6.722355842590332031e+00,6.717777729034423828e+00,6.719398021697998047e+00,6.724692344665527344e+00,6.740547657012939453e+00,6.748057365417480469e+00,6.757399082183837891e+00,6.774624824523925781e+00,6.812943935394287109e+00,6.864210128784179688e+00,6.908318519592285156e+00,6.947919368743896484e+00,6.990952968597412109e+00,7.025352001190185547e+00,7.055248260498046875e+00,7.077999114990234375e+00,7.098778724670410156e+00,7.122751235961914062e+00,7.140859603881835938e+00,7.162274360656738281e+00,7.177232265472412109e+00,7.191521644592285156e+00,7.200614452362060547e+00,7.200246810913085938e+00,7.192251682281494141e+00,7.183332920074462891e+00,7.165833950042724609e+00,7.150813579559326172e+00,7.135094165802001953e+00,7.114246845245361328e+00,7.094923019409179688e+00,7.077193737030029297e+00,7.068037509918212891e+00,7.060926437377929688e+00,7.058133125305175781e+00,7.049386978149414062e+00,7.037586688995361328e+00,7.023489475250244141e+00,7.006558418273925781e+00,7.003641128540039062e+00,7.017922878265380859e+00,7.024839401245117188e+00,7.019237518310546875e+00,7.008063316345214844e+00,7.008792877197265625e+00,7.026543140411376953e+00,7.059026718139648438e+00,7.109088897705078125e+00,7.138287544250488281e+00,7.144448757171630859e+00,7.144046783447265625e+00,7.136507034301757812e+00,7.123216629028320312e+00,7.109796524047851562e+00,7.101636886596679688e+00,7.096437454223632812e+00,7.093766689300537109e+00,7.086589336395263672e+00,7.075359344482421875e+00,7.064647674560546875e+00,7.051391124725341797e+00,7.041978836059570312e+00,7.039789199829101562e+00,7.034027576446533203e+00,7.028425216674804688e+00,7.029013156890869141e+00,6.981360435485839844e+00,6.880937576293945312e+00,6.695129394531250000e+00,6.657727241516113281e+00
5.424520492553710938e+00,5.461767673492431641e+00,5.498254776000976562e+00,5.538550376892089844e+00,5.578360080718994141e+00,5.616828441619873047e+00,5.656081676483154297e+00,5.695619583129882812e+00,5.734248638153076172e+00,5.772553920745849609e+00,5.814768791198730469e+00,5.853784084320068359e+00,5.895108699798583984e+00,5.937998771667480469e+00,5.978240966796875000e+00,6.017209053039550781e+00,6.052899837493896484e+00,6.090266227722167969e+00,6.126804828643798828e+00,6.161153793334960938e+00,6.197042465209960938e+00,6.229328632354736328e+00,6.262487411499023438e+00,6.289343833923339844e+00,6.312146663665771484e+00,6.335468292236328125e+00,6.361146450042724609e+00,6.390276432037353516e+00,6.421666145324707031e+00,6.451742172241210938e+00,6.483034610748291016e+00,6.511723518371582031e+00,6.537992954254150391e+00,6.562527656555175781e+00,6.582730770111083984e+00,6.600016593933105469e+00,6.616107940673828125e+00,6.636743545532226562e+00,6.656356811523437500e+00,6.671929359436035156e+00,6.686052799224853516e+00,6.703355312347412109e+00,6.709933280944824219e+00,6.719329357147216797e+00,6.726981163024902344e+00,6.730014801025390625e+00,6.737830162048339844e+00,6.749958038330078125e+00,6.764151096343994141e+00,6.769744873046875000e+00,6.780548095703125000e+00,6.776014328002929688e+00,6.794653415679931641e+00,6.844868659973144531e+00,6.900891780853271484e+00,6.960270404815673828e+00,7.009554862976074219e+00,7.038428306579589844e+00,7.064238071441650391e+00,7.087271213531494141e+00,7.109536647796630859e+00,7.138671398162841797e+00,7.163107395172119141e+00,7.181855678558349609e+00,7.192795276641845703e+00,7.202853202819824219e+00,7.216365337371826172e+00,7.229409694671630859e+00,7.240474224090576172e+00,7.253061294555664062e+00,7.266343593597412109e+00,7.275935173034667969e+00,7.280303478240966797e+00,7.272712230682373047e+00,7.261291027069091797e+00,7.241747379302978516e+00,7.219284534454345703e+00,7.194839954376220703e+00,7.173025131225585938e+00,7.157258510589599609e+00,7.137737274169921875e+00,7.125590324401855469e+00,7.117486000061035156e+00,7.122740268707275391e+00,7.128482818603515625e+00,7.129678726196289062e+00,7.111330986022949219e+00,7.090919971466064453e+00,7.090588569641113281e+00,7.130968093872070312e+00,7.188677310943603516e+00,7.211209297180175781e+00,7.222328662872314453e+00,7.223321914672851562e+00,7.223366737365722656e+00,7.216917514801025391e+00,7.213141918182373047e+00,7.205604076385498047e+00,7.197496891021728516e+00,7.185968399047851562e+00,7.174054622650146484e+00,7.157438278198242188e+00,7.143896579742431641e+00,7.129483222961425781e+00,7.115924835205078125e+00,7.103212356567382812e+00,7.085784435272216797e+00,7.066514968872070312e+00,7.049581527709960938e+00,7.038229465484619141e+00,7.030557155609130859e+00,7.026905059814453125e+00,7.019941806793212891e+00,7.016680240631103516e+00,7.012634754180908203e+00,6.988401412963867188e+00,6.886151790618896484e+00,6.681259632110595703e+00,6.655541896820068359e+00
5.396028518676757812e+00,5.432896137237548828e+00,5.470727443695068359e+00,5.510205745697021484e+00,5.547102451324462891e+00,5.582102775573730469e+00,5.615518569946289062e+00,5.651401519775390625e+00,5.688699722290039062e+00,5.724027156829833984e+00,5.764741897583007812e+00,5.808145046234130859e+00,5.848994731903076172e+00,5.890467643737792969e+00,5.930288791656494141e+00,5.969406127929687500e+00,6.007825851440429688e+00,6.047243595123291016e+00,6.088463783264160156e+00,6.132629871368408203e+00,6.170754432678222656e+00,6.207117080688476562e+00,6.246909618377685547e+00,6.280581474304199219e+00,6.308347225189208984e+00,6.338027954101562500e+00,6.368884086608886719e+00,6.403456211090087891e+00,6.439413547515869141e+00,6.472618579864501953e+00,6.506550788879394531e+00,6.540091037750244141e+00,6.572589874267578125e+00,6.596945285797119141e+00,6.616692543029785156e+00,6.636459350585937500e+00,6.652727127075195312e+00,6.669306755065917969e+00,6.689727783203125000e+00,6.704692363739013672e+00,6.728326797485351562e+00,6.754806995391845703e+00,6.777809619903564453e+00,6.783391952514648438e+00,6.790082931518554688e+00,6.789929389953613281e+00,6.797923564910888672e+00,6.818320274353027344e+00,6.855193614959716797e+00,6.895311832427978516e+00,6.947820663452148438e+00,6.998349666595458984e+00,7.042294979095458984e+00,7.071188449859619141e+00,7.101533889770507812e+00,7.140993118286132812e+00,7.177623271942138672e+00,7.195647716522216797e+00,7.207056999206542969e+00,7.220388889312744141e+00,7.229948520660400391e+00,7.246985912322998047e+00,7.262856960296630859e+00,7.273116588592529297e+00,7.282589912414550781e+00,7.284870624542236328e+00,7.292636871337890625e+00,7.302394866943359375e+00,7.309465885162353516e+00,7.318510055541992188e+00,7.333041191101074219e+00,7.342700004577636719e+00,7.352199077606201172e+00,7.350868701934814453e+00,7.340698719024658203e+00,7.323451995849609375e+00,7.305958271026611328e+00,7.289165019989013672e+00,7.278864860534667969e+00,7.269376754760742188e+00,7.256291389465332031e+00,7.240877628326416016e+00,7.224525928497314453e+00,7.231704711914062500e+00,7.269389629364013672e+00,7.323808670043945312e+00,7.369560718536376953e+00,7.390033721923828125e+00,7.392332553863525391e+00,7.374114990234375000e+00,7.358114242553710938e+00,7.335044384002685547e+00,7.313021659851074219e+00,7.292837142944335938e+00,7.275376796722412109e+00,7.256533622741699219e+00,7.237804412841796875e+00,7.217600822448730469e+00,7.195225715637207031e+00,7.177943229675292969e+00,7.161150932312011719e+00,7.144771575927734375e+00,7.130534172058105469e+00,7.114826679229736328e+00,7.099753856658935547e+00,7.084947109222412109e+00,7.067609310150146484e+00,7.049680233001708984e+00,7.032209396362304688e+00,7.018020629882812500e+00,7.007863044738769531e+00,7.005001068115234375e+00,7.002194881439208984e+00,6.997241973876953125e+00,6.989015579223632812e+00,6.969825267791748047e+00,6.883587837219238281e+00,6.689912319183349609e+00,6.652559280395507812e+00
5.381046772003173828e+00,5.419732570648193359e+00,5.457291126251220703e+00,5.497185230255126953e+00,5.535806655883789062e+00,5.571712493896484375e+00,5.606461048126220703e+00,5.641093730926513672e+00,5.676536083221435547e+00,5.711726188659667969e+00,5.749129772186279297e+00,5.786213397979736328e+00,5.827023983001708984e+00,5.864624500274658203e+00,5.899431228637695312e+00,5.935379028320312500e+00,5.970042705535888672e+00,6.004468917846679688e+00,6.046929836273193359e+00,6.091263294219970703e+00,6.133532047271728516e+00,6.168336868286132812e+00,6.207463264465332031e+00,6.249028205871582031e+00,6.288704395294189453e+00,6.328372955322265625e+00,6.364923000335693359e+00,6.405561923980712891e+00,6.446915149688720703e+00,6.486432552337646484e+00,6.523585796356201172e+00,6.556462287902832031e+00,6.589723587036132812e+00,6.620785713195800781e+00,6.643687248229980469e+00,6.671713352203369141e+00,6.698852062225341797e+00,6.708976268768310547e+00,6.731647968292236328e+00,6.751090526580810547e+00,6.782791137695312500e+00,6.823661327362060547e+00,6.864397525787353516e+00,6.908684253692626953e+00,6.954412937164306641e+00,7.000804424285888672e+00,7.051984786987304688e+00,7.082011699676513672e+00,7.097438812255859375e+00,7.113047599792480469e+00,7.141624927520751953e+00,7.168030261993408203e+00,7.189896106719970703e+00,7.211999893188476562e+00,7.233353137969970703e+00,7.261626720428466797e+00,7.291740894317626953e+00,7.304337024688720703e+00,7.308438301086425781e+00,7.312130928039550781e+00,7.317880153656005859e+00,7.333635330200195312e+00,7.348702907562255859e+00,7.354956150054931641e+00,7.361280441284179688e+00,7.365696907043457031e+00,7.371717453002929688e+00,7.379163742065429688e+00,7.383931159973144531e+00,7.398010253906250000e+00,7.410265445709228516e+00,7.420072555541992188e+00,7.430716514587402344e+00,7.441257476806640625e+00,7.443437576293945312e+00,7.434043407440185547e+00,7.422086238861083984e+00,7.401329994201660156e+00,7.410112380981445312e+00,7.458630561828613281e+00,7.507384777069091797e+00,7.536557197570800781e+00,7.547868728637695312e+00,7.550158023834228516e+00,7.544744968414306641e+00,7.528497695922851562e+00,7.505394935607910156e+00,7.474545955657958984e+00,7.443499088287353516e+00,7.399926662445068359e+00,7.373277187347412109e+00,7.345570564270019531e+00,7.313507556915283203e+00,7.289686203002929688e+00,7.271118640899658203e+00,7.248794078826904297e+00,7.230037212371826172e+00,7.209030628204345703e+00,7.187728404998779297e+00,7.170791625976562500e+00,7.152270317077636719e+00,7.136471748352050781e+00,7.122271060943603516e+00,7.106521129608154297e+00,7.092716693878173828e+00,7.077801704406738281e+00,7.060295581817626953e+00,7.042999267578125000e+00,7.024137973785400391e+00,7.007448196411132812e+00,6.996335983276367188e+00,6.990517616271972656e+00,6.988111019134521484e+00,6.982527256011962891e+00,6.966607570648193359e+00,6.949576854705810547e+00,6.866094589233398438e+00,6.710403442382812500e+00,6.669439315795898438e+00
5.376044273376464844e+00,5.414078235626220703e+00,5.451474189758300781e+00,5.491012096405029297e+00,5.529256820678710938e+00,5.564428329467773438e+00,5.599134445190429688e+00,5.632846832275390625e+00,5.666126251220703125e+00,5.699270248413085938e+00,5.734195709228515625e+00,5.770451068878173828e+00,5.808330535888671875e+00,5.846260547637939453e+00,5.884027004241943359e+00,5.922799587249755859e+00,5.960703849792480469e+00,5.998789787292480469e+00,6.037613391876220703e+00,6.077693939208984375e+00,6.119091987609863281e+00,6.152826309204101562e+00,6.190719127655029297e+00,6.228770732879638672e+00,6.267284393310546875e+00,6.306429386138916016e+00,6.344770908355712891e+00,6.387393951416015625e+00,6.427162647247314453e+00,6.467159271240234375e+00,6.504875659942626953e+00,6.543519496917724609e+00,6.585854530334472656e+00,6.629773616790771484e+00,6.669414520263671875e+00,6.707591056823730469e+00,6.749982357025146484e+00,6.796053409576416016e+00,6.865157604217529297e+00,6.936606884002685547e+00,7.003086090087890625e+00,7.051474094390869141e+00,7.092024326324462891e+00,7.124090194702148438e+00,7.155170917510986328e+00,7.179664134979248047e+00,7.202841758728027344e+00,7.225194931030273438e+00,7.247474193572998047e+00,7.261354923248291016e+00,7.279225349426269531e+00,7.300942897796630859e+00,7.321119785308837891e+00,7.342054843902587891e+00,7.359667778015136719e+00,7.376467227935791016e+00,7.389721870422363281e+00,7.390753269195556641e+00,7.393418788909912109e+00,7.393157482147216797e+00,7.393850803375244141e+00,7.413153648376464844e+00,7.426668643951416016e+00,7.436498641967773438e+00,7.439687728881835938e+00,7.444334506988525391e+00,7.456534862518310547e+00,7.477733612060546875e+00,7.496786594390869141e+00,7.506931304931640625e+00,7.515064716339111328e+00,7.512777328491210938e+00,7.518436908721923828e+00,7.538434505462646484e+00,7.560925483703613281e+00,7.583549976348876953e+00,7.608911514282226562e+00,7.624303817749023438e+00,7.632162094116210938e+00,7.634708404541015625e+00,7.637086391448974609e+00,7.638864517211914062e+00,7.629647731781005859e+00,7.618288040161132812e+00,7.599376201629638672e+00,7.579417228698730469e+00,7.545867919921875000e+00,7.497475624084472656e+00,7.446180820465087891e+00,7.399069309234619141e+00,7.370945930480957031e+00,7.341254711151123047e+00,7.310810565948486328e+00,7.285865306854248047e+00,7.263155460357666016e+00,7.243279457092285156e+00,7.225071430206298828e+00,7.205104827880859375e+00,7.184327602386474609e+00,7.167733669281005859e+00,7.149522304534912109e+00,7.133549213409423828e+00,7.118624687194824219e+00,7.103190422058105469e+00,7.089483261108398438e+00,7.075122833251953125e+00,7.059541702270507812e+00,7.040740966796875000e+00,7.019225597381591797e+00,7.001813411712646484e+00,6.989669322967529297e+00,6.979902267456054688e+00,6.976824760437011719e+00,6.967949390411376953e+00,6.948872566223144531e+00,6.926742076873779297e+00,6.848711013793945312e+00,6.718368053436279297e+00,6.689993381500244141e+00
5.373376846313476562e+00,5.411350727081298828e+00,5.449474334716796875e+00,5.488816738128662109e+00,5.526802539825439453e+00,5.562659263610839844e+00,5.595962524414062500e+00,5.629326343536376953e+00,5.661625385284423828e+00,5.693756580352783203e+00,5.726902484893798828e+00,5.761365890502929688e+00,5.797657966613769531e+00,5.834727764129638672e+00,5.871571063995361328e+00,5.909502983093261719e+00,5.948276996612548828e+00,5.985523700714111328e+00,6.023881912231445312e+00,6.063290596008300781e+00,6.103633403778076172e+00,6.141087055206298828e+00,6.179347038269042969e+00,6.217237472534179688e+00,6.255411148071289062e+00,6.295480728149414062e+00,6.336984157562255859e+00,6.380588531494140625e+00,6.423574447631835938e+00,6.463572978973388672e+00,6.502951622009277344e+00,6.541331291198730469e+00,6.582655429840087891e+00,6.623665332794189453e+00,6.665061473846435547e+00,6.711933135986328125e+00,6.758636474609375000e+00,6.818562507629394531e+00,6.897788524627685547e+00,6.985423564910888672e+00,7.062900543212890625e+00,7.113141536712646484e+00,7.145467758178710938e+00,7.174413681030273438e+00,7.205382823944091797e+00,7.234510898590087891e+00,7.265385150909423828e+00,7.294898509979248047e+00,7.320924282073974609e+00,7.342465400695800781e+00,7.366089344024658203e+00,7.387887001037597656e+00,7.410285472869873047e+00,7.429332256317138672e+00,7.449331283569335938e+00,7.465866088867187500e+00,7.477427482604980469e+00,7.475687026977539062e+00,7.473237514495849609e+00,7.470757007598876953e+00,7.464584827423095703e+00,7.487641811370849609e+00,7.512399196624755859e+00,7.531476974487304688e+00,7.542410373687744141e+00,7.542694091796875000e+00,7.558661460876464844e+00,7.586081981658935547e+00,7.628153800964355469e+00,7.656657695770263672e+00,7.670663833618164062e+00,7.682908535003662109e+00,7.684228420257568359e+00,7.677769184112548828e+00,7.666037082672119141e+00,7.660058975219726562e+00,7.655111789703369141e+00,7.657379627227783203e+00,7.654960155487060547e+00,7.648195266723632812e+00,7.642635345458984375e+00,7.635510444641113281e+00,7.620050430297851562e+00,7.608427047729492188e+00,7.592835903167724609e+00,7.571955680847167969e+00,7.540236949920654297e+00,7.489479541778564453e+00,7.433264255523681641e+00,7.384604454040527344e+00,7.358831882476806641e+00,7.329085826873779297e+00,7.303084850311279297e+00,7.281758308410644531e+00,7.260062694549560547e+00,7.241960048675537109e+00,7.226049900054931641e+00,7.206479549407958984e+00,7.186211109161376953e+00,7.170546054840087891e+00,7.154083728790283203e+00,7.138311862945556641e+00,7.124993324279785156e+00,7.109405517578125000e+00,7.094992637634277344e+00,7.079875946044921875e+00,7.064638614654541016e+00,7.043914794921875000e+00,7.021270275115966797e+00,7.003380775451660156e+00,6.989120006561279297e+00,6.978380680084228516e+00,6.971052169799804688e+00,6.958745956420898438e+00,6.939561367034912109e+00,6.916148185729980469e+00,6.840693473815917969e+00,6.728378295898437500e+00,6.704492092132568359e+00
5.372591972351074219e+00,5.409491539001464844e+00,5.445755004882812500e+00,5.485057353973388672e+00,5.523046970367431641e+00,5.558049201965332031e+00,5.592093467712402344e+00,5.624929904937744141e+00,5.657112598419189453e+00,5.689581871032714844e+00,5.722449779510498047e+00,5.756953239440917969e+00,5.790744781494140625e+00,5.826646804809570312e+00,5.863585948944091797e+00,5.901425838470458984e+00,5.939466476440429688e+00,5.978031158447265625e+00,6.015535831451416016e+00,6.053922176361083984e+00,6.094705581665039062e+00,6.132367610931396484e+00,6.169581413269042969e+00,6.207414627075195312e+00,6.245254516601562500e+00,6.284589290618896484e+00,6.323431491851806641e+00,6.368553638458251953e+00,6.413091659545898438e+00,6.456402778625488281e+00,6.497490406036376953e+00,6.536477088928222656e+00,6.576582431793212891e+00,6.619696140289306641e+00,6.659787654876708984e+00,6.702879428863525391e+00,6.749424457550048828e+00,6.795210361480712891e+00,6.872498035430908203e+00,6.980286121368408203e+00,7.063642024993896484e+00,7.111210346221923828e+00,7.144996166229248047e+00,7.171763896942138672e+00,7.208322525024414062e+00,7.245178222656250000e+00,7.280539512634277344e+00,7.315472602844238281e+00,7.345719814300537109e+00,7.372976303100585938e+00,7.401164054870605469e+00,7.427870273590087891e+00,7.455418586730957031e+00,7.479427337646484375e+00,7.507483005523681641e+00,7.531290054321289062e+00,7.553106784820556641e+00,7.563882827758789062e+00,7.568937778472900391e+00,7.577619075775146484e+00,7.570916175842285156e+00,7.597604274749755859e+00,7.633239269256591797e+00,7.662774085998535156e+00,7.692249298095703125e+00,7.715873241424560547e+00,7.724522590637207031e+00,7.725003242492675781e+00,7.726548671722412109e+00,7.729572772979736328e+00,7.728042602539062500e+00,7.722532749176025391e+00,7.715657234191894531e+00,7.702326774597167969e+00,7.693911075592041016e+00,7.679011821746826172e+00,7.668115615844726562e+00,7.658194065093994141e+00,7.651410102844238281e+00,7.641954898834228516e+00,7.636659145355224609e+00,7.629414558410644531e+00,7.617035388946533203e+00,7.607084751129150391e+00,7.587652683258056641e+00,7.564086914062500000e+00,7.531460762023925781e+00,7.478331089019775391e+00,7.420658111572265625e+00,7.367120742797851562e+00,7.344356536865234375e+00,7.319504261016845703e+00,7.295341014862060547e+00,7.276759624481201172e+00,7.256657123565673828e+00,7.240053176879882812e+00,7.225219249725341797e+00,7.205822944641113281e+00,7.186602115631103516e+00,7.172262191772460938e+00,7.156680107116699219e+00,7.142434120178222656e+00,7.129861831665039062e+00,7.114040374755859375e+00,7.098609447479248047e+00,7.082968235015869141e+00,7.067271232604980469e+00,7.046004772186279297e+00,7.023802280426025391e+00,7.004708766937255859e+00,6.987575531005859375e+00,6.975668907165527344e+00,6.965173721313476562e+00,6.953598499298095703e+00,6.936998844146728516e+00,6.909401416778564453e+00,6.838143825531005859e+00,6.743026733398437500e+00,6.721612453460693359e+00
5.368443489074707031e+00,5.403695583343505859e+00,5.439324378967285156e+00,5.477972507476806641e+00,5.515072822570800781e+00,5.549453258514404297e+00,5.583232879638671875e+00,5.615426063537597656e+00,5.647578239440917969e+00,5.679437637329101562e+00,5.712260723114013672e+00,5.747039318084716797e+00,5.781000137329101562e+00,5.817684173583984375e+00,5.854847431182861328e+00,5.893277168273925781e+00,5.932514190673828125e+00,5.971502304077148438e+00,6.010076522827148438e+00,6.049571514129638672e+00,6.090948104858398438e+00,6.127906322479248047e+00,6.165341377258300781e+00,6.202607631683349609e+00,6.240201950073242188e+00,6.277373790740966797e+00,6.316042900085449219e+00,6.359335422515869141e+00,6.405419349670410156e+00,6.449654579162597656e+00,6.491471767425537109e+00,6.529272079467773438e+00,6.568510055541992188e+00,6.608486175537109375e+00,6.648060798645019531e+00,6.686343193054199219e+00,6.732327461242675781e+00,6.776033878326416016e+00,6.833282947540283203e+00,6.943304538726806641e+00,7.030442714691162109e+00,7.087426185607910156e+00,7.119541645050048828e+00,7.149631977081298828e+00,7.190848350524902344e+00,7.226526260375976562e+00,7.263861179351806641e+00,7.297847747802734375e+00,7.329086780548095703e+00,7.360002994537353516e+00,7.391058444976806641e+00,7.423081874847412109e+00,7.456136703491210938e+00,7.490023136138916016e+00,7.527707576751708984e+00,7.563265800476074219e+00,7.590012073516845703e+00,7.615635395050048828e+00,7.636239051818847656e+00,7.652821063995361328e+00,7.665172100067138672e+00,7.680018424987792969e+00,7.713507652282714844e+00,7.724124908447265625e+00,7.737609386444091797e+00,7.745078086853027344e+00,7.747759819030761719e+00,7.748085498809814453e+00,7.742871761322021484e+00,7.738614082336425781e+00,7.725997447967529297e+00,7.716162204742431641e+00,7.707963466644287109e+00,7.697579860687255859e+00,7.688925266265869141e+00,7.676352500915527344e+00,7.663937568664550781e+00,7.653911590576171875e+00,7.646139621734619141e+00,7.637558460235595703e+00,7.631550788879394531e+00,7.623313426971435547e+00,7.611358642578125000e+00,7.600671291351318359e+00,7.584003925323486328e+00,7.565019130706787109e+00,7.532789707183837891e+00,7.477275371551513672e+00,7.416787624359130859e+00,7.361339569091796875e+00,7.340466976165771484e+00,7.317782402038574219e+00,7.294088840484619141e+00,7.274671554565429688e+00,7.256341457366943359e+00,7.239597320556640625e+00,7.223948478698730469e+00,7.204448699951171875e+00,7.186120033264160156e+00,7.170460700988769531e+00,7.154852390289306641e+00,7.141030311584472656e+00,7.127273559570312500e+00,7.110853195190429688e+00,7.094525814056396484e+00,7.079285144805908203e+00,7.062519073486328125e+00,7.041067123413085938e+00,7.018304347991943359e+00,6.998968601226806641e+00,6.983084201812744141e+00,6.972750186920166016e+00,6.959633350372314453e+00,6.948453903198242188e+00,6.930926322937011719e+00,6.903837680816650391e+00,6.834540367126464844e+00,6.751088142395019531e+00,6.728559970855712891e+00
5.364078998565673828e+00,5.399204254150390625e+00,5.434831619262695312e+00,5.471619129180908203e+00,5.508729934692382812e+00,5.542953968048095703e+00,5.576293468475341797e+00,5.607480049133300781e+00,5.639436721801757812e+00,5.671232700347900391e+00,5.703177452087402344e+00,5.737232208251953125e+00,5.772571563720703125e+00,5.809452056884765625e+00,5.846194267272949219e+00,5.885679721832275391e+00,5.926197528839111328e+00,5.965496063232421875e+00,6.005184173583984375e+00,6.044845104217529297e+00,6.085640907287597656e+00,6.123449325561523438e+00,6.161414146423339844e+00,6.199419498443603516e+00,6.235355377197265625e+00,6.272431850433349609e+00,6.308950424194335938e+00,6.352106094360351562e+00,6.397800922393798828e+00,6.442202568054199219e+00,6.484459400177001953e+00,6.523162364959716797e+00,6.562705516815185547e+00,6.600749969482421875e+00,6.640544414520263672e+00,6.678687095642089844e+00,6.718189716339111328e+00,6.756289482116699219e+00,6.805300235748291016e+00,6.902354240417480469e+00,7.005578994750976562e+00,7.060074329376220703e+00,7.094556808471679688e+00,7.125898361206054688e+00,7.165570259094238281e+00,7.204188346862792969e+00,7.242925643920898438e+00,7.279897689819335938e+00,7.310186862945556641e+00,7.344343185424804688e+00,7.378568172454833984e+00,7.413644313812255859e+00,7.448143959045410156e+00,7.484490871429443359e+00,7.524397373199462891e+00,7.563454151153564453e+00,7.593375205993652344e+00,7.621133327484130859e+00,7.644987106323242188e+00,7.669371128082275391e+00,7.686446666717529297e+00,7.708809852600097656e+00,7.735359668731689453e+00,7.743796348571777344e+00,7.745941162109375000e+00,7.747468471527099609e+00,7.748511314392089844e+00,7.746915817260742188e+00,7.744674682617187500e+00,7.736616134643554688e+00,7.727581977844238281e+00,7.717355251312255859e+00,7.706666469573974609e+00,7.695629119873046875e+00,7.684200286865234375e+00,7.673095226287841797e+00,7.660227775573730469e+00,7.651035308837890625e+00,7.642407417297363281e+00,7.632835865020751953e+00,7.626560211181640625e+00,7.620127677917480469e+00,7.609390735626220703e+00,7.596601009368896484e+00,7.580751895904541016e+00,7.561295032501220703e+00,7.535463333129882812e+00,7.480404853820800781e+00,7.413783550262451172e+00,7.360745906829833984e+00,7.340061187744140625e+00,7.320333480834960938e+00,7.297435760498046875e+00,7.276251792907714844e+00,7.259267807006835938e+00,7.241987705230712891e+00,7.225617885589599609e+00,7.206503391265869141e+00,7.187829971313476562e+00,7.171711444854736328e+00,7.156460762023925781e+00,7.141952991485595703e+00,7.127194404602050781e+00,7.110727310180664062e+00,7.093814849853515625e+00,7.076956272125244141e+00,7.059392929077148438e+00,7.036598682403564453e+00,7.014121532440185547e+00,6.996608734130859375e+00,6.981501579284667969e+00,6.971559524536132812e+00,6.956510066986083984e+00,6.943559646606445312e+00,6.925428867340087891e+00,6.894610404968261719e+00,6.831135749816894531e+00,6.759925365447998047e+00,6.737624645233154297e+00
5.362332344055175781e+00,5.397659778594970703e+00,5.433074951171875000e+00,5.470581054687500000e+00,5.507339477539062500e+00,5.541724681854248047e+00,5.574787616729736328e+00,5.606248855590820312e+00,5.637368679046630859e+00,5.668385505676269531e+00,5.699600219726562500e+00,5.733856201171875000e+00,5.769134998321533203e+00,5.805450916290283203e+00,5.841895580291748047e+00,5.880711078643798828e+00,5.920515537261962891e+00,5.959004402160644531e+00,5.998067855834960938e+00,6.037069320678710938e+00,6.077338218688964844e+00,6.114766120910644531e+00,6.153028964996337891e+00,6.190016269683837891e+00,6.225009918212890625e+00,6.261771202087402344e+00,6.298034191131591797e+00,6.341798305511474609e+00,6.388177394866943359e+00,6.432076454162597656e+00,6.475313186645507812e+00,6.515543937683105469e+00,6.553710460662841797e+00,6.593235969543457031e+00,6.634490966796875000e+00,6.671734809875488281e+00,6.714251518249511719e+00,6.749845504760742188e+00,6.792687416076660156e+00,6.883248805999755859e+00,6.982825756072998047e+00,7.028790473937988281e+00,7.061451911926269531e+00,7.102432727813720703e+00,7.146298408508300781e+00,7.184551239013671875e+00,7.223204135894775391e+00,7.256502628326416016e+00,7.291062831878662109e+00,7.325003623962402344e+00,7.358964443206787109e+00,7.393598079681396484e+00,7.428050994873046875e+00,7.466325759887695312e+00,7.504304409027099609e+00,7.543409824371337891e+00,7.575736045837402344e+00,7.598050117492675781e+00,7.624451160430908203e+00,7.646086215972900391e+00,7.665219783782958984e+00,7.692883968353271484e+00,7.719997406005859375e+00,7.726644992828369141e+00,7.732838630676269531e+00,7.732787609100341797e+00,7.734818935394287109e+00,7.737480640411376953e+00,7.736731052398681641e+00,7.731087684631347656e+00,7.723377704620361328e+00,7.714048385620117188e+00,7.704489231109619141e+00,7.693996429443359375e+00,7.683279037475585938e+00,7.672503471374511719e+00,7.660345554351806641e+00,7.651452541351318359e+00,7.642958164215087891e+00,7.632335186004638672e+00,7.626274585723876953e+00,7.619764804840087891e+00,7.609178543090820312e+00,7.597404956817626953e+00,7.580044746398925781e+00,7.564390659332275391e+00,7.541228771209716797e+00,7.481616973876953125e+00,7.411762714385986328e+00,7.359762668609619141e+00,7.339172840118408203e+00,7.318470954895019531e+00,7.295437812805175781e+00,7.276488780975341797e+00,7.259308338165283203e+00,7.241807937622070312e+00,7.225968837738037109e+00,7.207537174224853516e+00,7.189489841461181641e+00,7.174185752868652344e+00,7.159849166870117188e+00,7.143573760986328125e+00,7.128726005554199219e+00,7.113155364990234375e+00,7.094795703887939453e+00,7.076795101165771484e+00,7.058873176574707031e+00,7.034828662872314453e+00,7.012804985046386719e+00,6.996335506439208984e+00,6.982191085815429688e+00,6.972568988800048828e+00,6.956701755523681641e+00,6.942224025726318359e+00,6.924041271209716797e+00,6.890822887420654297e+00,6.833347320556640625e+00,6.771613121032714844e+00,6.745886325836181641e+00
5.358900547027587891e+00,5.394576549530029297e+00,5.431002616882324219e+00,5.468542098999023438e+00,5.505436897277832031e+00,5.540421009063720703e+00,5.573412418365478516e+00,5.604396343231201172e+00,5.635260105133056641e+00,5.666316032409667969e+00,5.697539806365966797e+00,5.731579780578613281e+00,5.767236709594726562e+00,5.802374362945556641e+00,5.838787078857421875e+00,5.876578330993652344e+00,5.916002273559570312e+00,5.953841686248779297e+00,5.991909980773925781e+00,6.030865669250488281e+00,6.069846630096435547e+00,6.106717586517333984e+00,6.144684314727783203e+00,6.181887149810791016e+00,6.216116905212402344e+00,6.252890110015869141e+00,6.292371273040771484e+00,6.335848808288574219e+00,6.382282733917236328e+00,6.426217555999755859e+00,6.467745304107666016e+00,6.508740901947021484e+00,6.548721790313720703e+00,6.589011669158935547e+00,6.629891395568847656e+00,6.668648242950439453e+00,6.708226203918457031e+00,6.747819900512695312e+00,6.785832405090332031e+00,6.875864028930664062e+00,6.966167449951171875e+00,7.014809131622314453e+00,7.039298534393310547e+00,7.078262329101562500e+00,7.123483180999755859e+00,7.166812896728515625e+00,7.205677986145019531e+00,7.243924140930175781e+00,7.280044078826904297e+00,7.314028739929199219e+00,7.346024036407470703e+00,7.379167556762695312e+00,7.414306640625000000e+00,7.455106735229492188e+00,7.493581771850585938e+00,7.532655239105224609e+00,7.564459323883056641e+00,7.589117527008056641e+00,7.612601757049560547e+00,7.634510517120361328e+00,7.659362792968750000e+00,7.681529998779296875e+00,7.712869644165039062e+00,7.722192287445068359e+00,7.725712299346923828e+00,7.725579738616943359e+00,7.727052211761474609e+00,7.729821681976318359e+00,7.728239059448242188e+00,7.723433971405029297e+00,7.716732025146484375e+00,7.707229137420654297e+00,7.699794292449951172e+00,7.690056324005126953e+00,7.679274082183837891e+00,7.668739795684814453e+00,7.656608104705810547e+00,7.648065567016601562e+00,7.641263008117675781e+00,7.630952358245849609e+00,7.624119758605957031e+00,7.617686271667480469e+00,7.606611728668212891e+00,7.595214366912841797e+00,7.581549644470214844e+00,7.566843986511230469e+00,7.544132232666015625e+00,7.485352993011474609e+00,7.413350105285644531e+00,7.360456943511962891e+00,7.338756561279296875e+00,7.317103862762451172e+00,7.294950485229492188e+00,7.276859283447265625e+00,7.259824275970458984e+00,7.242762565612792969e+00,7.228055477142333984e+00,7.210187911987304688e+00,7.192788600921630859e+00,7.177749156951904297e+00,7.161979198455810547e+00,7.145433902740478516e+00,7.130969047546386719e+00,7.113644599914550781e+00,7.093445301055908203e+00,7.075672626495361328e+00,7.057012557983398438e+00,7.032836914062500000e+00,7.011411666870117188e+00,6.996715545654296875e+00,6.983417510986328125e+00,6.973257541656494141e+00,6.955324172973632812e+00,6.939213752746582031e+00,6.919497489929199219e+00,6.887856483459472656e+00,6.837802886962890625e+00,6.780234813690185547e+00,6.750360488891601562e+00
5.354551315307617188e+00,5.390483856201171875e+00,5.427560329437255859e+00,5.465948581695556641e+00,5.502901554107666016e+00,5.537887573242187500e+00,5.571070671081542969e+00,5.602618217468261719e+00,5.633349418640136719e+00,5.664757251739501953e+00,5.697200298309326172e+00,5.731979370117187500e+00,5.766401767730712891e+00,5.801849842071533203e+00,5.837985992431640625e+00,5.875631332397460938e+00,5.914625167846679688e+00,5.952038764953613281e+00,5.988953113555908203e+00,6.028173446655273438e+00,6.067783832550048828e+00,6.104395866394042969e+00,6.141461372375488281e+00,6.178323268890380859e+00,6.212481498718261719e+00,6.250750064849853516e+00,6.290858745574951172e+00,6.335208892822265625e+00,6.380793571472167969e+00,6.423929214477539062e+00,6.465353488922119141e+00,6.508523464202880859e+00,6.547924995422363281e+00,6.589177131652832031e+00,6.629113197326660156e+00,6.667689800262451172e+00,6.708600997924804688e+00,6.745439529418945312e+00,6.788173198699951172e+00,6.871270179748535156e+00,6.959089279174804688e+00,7.005591869354248047e+00,7.028101921081542969e+00,7.061455726623535156e+00,7.105149745941162109e+00,7.150392055511474609e+00,7.194835186004638672e+00,7.236520767211914062e+00,7.275826454162597656e+00,7.311953544616699219e+00,7.345653057098388672e+00,7.376885414123535156e+00,7.409565448760986328e+00,7.449495792388916016e+00,7.487028121948242188e+00,7.525939941406250000e+00,7.560137748718261719e+00,7.584501743316650391e+00,7.608995437622070312e+00,7.630828380584716797e+00,7.656021595001220703e+00,7.680250644683837891e+00,7.710266113281250000e+00,7.717823505401611328e+00,7.723297595977783203e+00,7.721555709838867188e+00,7.722925186157226562e+00,7.721989631652832031e+00,7.719788074493408203e+00,7.715926647186279297e+00,7.708184242248535156e+00,7.699863910675048828e+00,7.692934036254882812e+00,7.683004856109619141e+00,7.672938823699951172e+00,7.662101268768310547e+00,7.649939537048339844e+00,7.641740322113037109e+00,7.634882926940917969e+00,7.624041080474853516e+00,7.617267608642578125e+00,7.612206935882568359e+00,7.602353096008300781e+00,7.592313289642333984e+00,7.579607009887695312e+00,7.563794612884521484e+00,7.538929462432861328e+00,7.482324600219726562e+00,7.411592006683349609e+00,7.358895301818847656e+00,7.335453987121582031e+00,7.313088893890380859e+00,7.291994571685791016e+00,7.274618625640869141e+00,7.257540225982666016e+00,7.241622924804687500e+00,7.227364540100097656e+00,7.209897994995117188e+00,7.192608833312988281e+00,7.177315711975097656e+00,7.162170410156250000e+00,7.146805286407470703e+00,7.132366180419921875e+00,7.114216327667236328e+00,7.093701839447021484e+00,7.075196743011474609e+00,7.055454254150390625e+00,7.031160354614257812e+00,7.010654449462890625e+00,6.998034000396728516e+00,6.983577251434326172e+00,6.972040176391601562e+00,6.953113555908203125e+00,6.936739921569824219e+00,6.916469097137451172e+00,6.884504318237304688e+00,6.842128753662109375e+00,6.784896850585937500e+00,6.756542205810546875e+00
5.349770545959472656e+00,5.385889053344726562e+00,5.423301219940185547e+00,5.461709022521972656e+00,5.498292446136474609e+00,5.533981800079345703e+00,5.568513870239257812e+00,5.600415229797363281e+00,5.631064414978027344e+00,5.662473678588867188e+00,5.695442676544189453e+00,5.731015205383300781e+00,5.766391754150390625e+00,5.801733493804931641e+00,5.837544441223144531e+00,5.875276088714599609e+00,5.913846492767333984e+00,5.951400756835937500e+00,5.988647460937500000e+00,6.026978969573974609e+00,6.066402435302734375e+00,6.102272510528564453e+00,6.139077663421630859e+00,6.176131725311279297e+00,6.211410522460937500e+00,6.249266147613525391e+00,6.291078090667724609e+00,6.336042404174804688e+00,6.380917549133300781e+00,6.424667835235595703e+00,6.467399120330810547e+00,6.509572029113769531e+00,6.548712253570556641e+00,6.590693950653076172e+00,6.631406307220458984e+00,6.669244289398193359e+00,6.710275173187255859e+00,6.747935295104980469e+00,6.792929649353027344e+00,6.866603851318359375e+00,6.950474739074707031e+00,6.996413707733154297e+00,7.021273612976074219e+00,7.056550979614257812e+00,7.099527359008789062e+00,7.141793251037597656e+00,7.186000347137451172e+00,7.230682849884033203e+00,7.270470619201660156e+00,7.307757377624511719e+00,7.339661121368408203e+00,7.373181819915771484e+00,7.407510280609130859e+00,7.445802211761474609e+00,7.482880115509033203e+00,7.519438266754150391e+00,7.551801681518554688e+00,7.579141616821289062e+00,7.601693153381347656e+00,7.624301910400390625e+00,7.648040294647216797e+00,7.674314022064208984e+00,7.700047492980957031e+00,7.713366508483886719e+00,7.717233180999755859e+00,7.713661670684814453e+00,7.715484619140625000e+00,7.713901519775390625e+00,7.711516857147216797e+00,7.707913875579833984e+00,7.700532913208007812e+00,7.692275524139404297e+00,7.685737133026123047e+00,7.675507068634033203e+00,7.666121006011962891e+00,7.656534194946289062e+00,7.644751071929931641e+00,7.636003017425537109e+00,7.629128456115722656e+00,7.618599414825439453e+00,7.612254619598388672e+00,7.607347011566162109e+00,7.599402427673339844e+00,7.590495586395263672e+00,7.576756000518798828e+00,7.559625625610351562e+00,7.531776905059814453e+00,7.478615760803222656e+00,7.413422107696533203e+00,7.361156463623046875e+00,7.335491180419921875e+00,7.311624526977539062e+00,7.290974140167236328e+00,7.273337364196777344e+00,7.255526065826416016e+00,7.240386962890625000e+00,7.226763248443603516e+00,7.210438251495361328e+00,7.193993091583251953e+00,7.178118705749511719e+00,7.163319110870361328e+00,7.148720741271972656e+00,7.134213924407958984e+00,7.114966392517089844e+00,7.094748497009277344e+00,7.076134204864501953e+00,7.056509971618652344e+00,7.033863544464111328e+00,7.015280723571777344e+00,7.000073432922363281e+00,6.984658718109130859e+00,6.972194194793701172e+00,6.951534271240234375e+00,6.935036182403564453e+00,6.914999485015869141e+00,6.880960464477539062e+00,6.840934276580810547e+00,6.787946224212646484e+00,6.761926651000976562e+00
5.343782901763916016e+00,5.379866123199462891e+00,5.417715549468994141e+00,5.455917358398437500e+00,5.492891311645507812e+00,5.528891563415527344e+00,5.563905239105224609e+00,5.596520423889160156e+00,5.627587795257568359e+00,5.658782958984375000e+00,5.692018032073974609e+00,5.727627754211425781e+00,5.763175010681152344e+00,5.798518180847167969e+00,5.834519863128662109e+00,5.871885776519775391e+00,5.910626888275146484e+00,5.947952747344970703e+00,5.984967708587646484e+00,6.023289203643798828e+00,6.063150405883789062e+00,6.099858283996582031e+00,6.137437343597412109e+00,6.175405502319335938e+00,6.211011886596679688e+00,6.249359607696533203e+00,6.290700912475585938e+00,6.335577011108398438e+00,6.381557464599609375e+00,6.425920963287353516e+00,6.468496322631835938e+00,6.509554386138916016e+00,6.547422409057617188e+00,6.587346076965332031e+00,6.628296375274658203e+00,6.664277553558349609e+00,6.705367565155029297e+00,6.744200229644775391e+00,6.787216186523437500e+00,6.863045215606689453e+00,6.938825130462646484e+00,6.988714218139648438e+00,7.016810894012451172e+00,7.049568653106689453e+00,7.091234207153320312e+00,7.133587837219238281e+00,7.176722526550292969e+00,7.222512245178222656e+00,7.267803192138671875e+00,7.303715705871582031e+00,7.336139678955078125e+00,7.369064331054687500e+00,7.403998374938964844e+00,7.443673610687255859e+00,7.479865074157714844e+00,7.514428615570068359e+00,7.545490264892578125e+00,7.571827411651611328e+00,7.594159126281738281e+00,7.618432998657226562e+00,7.642286777496337891e+00,7.663566112518310547e+00,7.690958976745605469e+00,7.701519012451171875e+00,7.705119132995605469e+00,7.700721263885498047e+00,7.702998161315917969e+00,7.701771259307861328e+00,7.698837757110595703e+00,7.696378231048583984e+00,7.690472602844238281e+00,7.682443141937255859e+00,7.675654888153076172e+00,7.667042255401611328e+00,7.658195972442626953e+00,7.649244785308837891e+00,7.638490200042724609e+00,7.630090236663818359e+00,7.623922348022460938e+00,7.614236831665039062e+00,7.608700752258300781e+00,7.605492591857910156e+00,7.597840785980224609e+00,7.588833808898925781e+00,7.575239658355712891e+00,7.555191516876220703e+00,7.526025772094726562e+00,7.474275588989257812e+00,7.416532993316650391e+00,7.362143516540527344e+00,7.338021755218505859e+00,7.314231395721435547e+00,7.292095184326171875e+00,7.274106979370117188e+00,7.255862236022949219e+00,7.241273880004882812e+00,7.229059219360351562e+00,7.213472843170166016e+00,7.196346282958984375e+00,7.180894374847412109e+00,7.166417121887207031e+00,7.151376724243164062e+00,7.136407852172851562e+00,7.116491317749023438e+00,7.095763683319091797e+00,7.076295852661132812e+00,7.057433605194091797e+00,7.036882877349853516e+00,7.016610145568847656e+00,6.998961925506591797e+00,6.984065532684326172e+00,6.969510078430175781e+00,6.947708129882812500e+00,6.929779529571533203e+00,6.908190727233886719e+00,6.874042510986328125e+00,6.837728977203369141e+00,6.789518833160400391e+00,6.760986804962158203e+00
5.338477611541748047e+00,5.374616622924804688e+00,5.412210464477539062e+00,5.451041698455810547e+00,5.488690376281738281e+00,5.525209426879882812e+00,5.561128139495849609e+00,5.593649387359619141e+00,5.624765396118164062e+00,5.656247138977050781e+00,5.689416408538818359e+00,5.724849224090576172e+00,5.759952545166015625e+00,5.796127796173095703e+00,5.831481456756591797e+00,5.869462966918945312e+00,5.908761501312255859e+00,5.946138381958007812e+00,5.984036445617675781e+00,6.021857261657714844e+00,6.061357975006103516e+00,6.098953723907470703e+00,6.137214183807373047e+00,6.174850940704345703e+00,6.211920261383056641e+00,6.250266551971435547e+00,6.291549205780029297e+00,6.336316585540771484e+00,6.380565643310546875e+00,6.426287174224853516e+00,6.468740463256835938e+00,6.509756088256835938e+00,6.546707630157470703e+00,6.586178779602050781e+00,6.625581741333007812e+00,6.661524772644042969e+00,6.701337814331054688e+00,6.740218639373779297e+00,6.784152030944824219e+00,6.857042312622070312e+00,6.932841777801513672e+00,6.980832576751708984e+00,7.011560440063476562e+00,7.043649673461914062e+00,7.082780838012695312e+00,7.123986244201660156e+00,7.166229248046875000e+00,7.211430549621582031e+00,7.255355358123779297e+00,7.295178413391113281e+00,7.331041336059570312e+00,7.364317417144775391e+00,7.400240898132324219e+00,7.439035415649414062e+00,7.475831508636474609e+00,7.510364532470703125e+00,7.540516376495361328e+00,7.565819740295410156e+00,7.588648796081542969e+00,7.613630771636962891e+00,7.636338710784912109e+00,7.654215812683105469e+00,7.680502891540527344e+00,7.691775321960449219e+00,7.694963455200195312e+00,7.691693305969238281e+00,7.693704605102539062e+00,7.690397262573242188e+00,7.687744140625000000e+00,7.685710430145263672e+00,7.681193351745605469e+00,7.673633575439453125e+00,7.667098522186279297e+00,7.659975051879882812e+00,7.652523994445800781e+00,7.644052028656005859e+00,7.634774208068847656e+00,7.627055644989013672e+00,7.621084690093994141e+00,7.611461639404296875e+00,7.606491565704345703e+00,7.603994846343994141e+00,7.597378730773925781e+00,7.588151454925537109e+00,7.572145938873291016e+00,7.551330089569091797e+00,7.521955013275146484e+00,7.471826076507568359e+00,7.421091079711914062e+00,7.365696907043457031e+00,7.342165946960449219e+00,7.317489147186279297e+00,7.295440673828125000e+00,7.276160717010498047e+00,7.257526874542236328e+00,7.242847442626953125e+00,7.229935169219970703e+00,7.214184761047363281e+00,7.197789192199707031e+00,7.183011531829833984e+00,7.168171405792236328e+00,7.152955532073974609e+00,7.137239456176757812e+00,7.117366313934326172e+00,7.096485614776611328e+00,7.076511383056640625e+00,7.057296752929687500e+00,7.037392139434814453e+00,7.018047332763671875e+00,7.001572132110595703e+00,6.983767509460449219e+00,6.967833042144775391e+00,6.946581363677978516e+00,6.927999496459960938e+00,6.905968666076660156e+00,6.872251033782958984e+00,6.839263439178466797e+00,6.790045738220214844e+00,6.760583877563476562e+00
5.334718227386474609e+00,5.370369434356689453e+00,5.408457756042480469e+00,5.447567939758300781e+00,5.485155105590820312e+00,5.522040843963623047e+00,5.557270050048828125e+00,5.590114116668701172e+00,5.621686935424804688e+00,5.652844905853271484e+00,5.686470985412597656e+00,5.721084594726562500e+00,5.756094932556152344e+00,5.793264865875244141e+00,5.829831123352050781e+00,5.868342876434326172e+00,5.908200263977050781e+00,5.945533275604248047e+00,5.983727931976318359e+00,6.021758556365966797e+00,6.061573505401611328e+00,6.099229335784912109e+00,6.136825084686279297e+00,6.175130844116210938e+00,6.211987972259521484e+00,6.249937534332275391e+00,6.290571212768554688e+00,6.334599018096923828e+00,6.379323005676269531e+00,6.424949169158935547e+00,6.468082904815673828e+00,6.508051872253417969e+00,6.545610904693603516e+00,6.584612846374511719e+00,6.622532367706298828e+00,6.658835411071777344e+00,6.696674346923828125e+00,6.733604907989501953e+00,6.777225494384765625e+00,6.843135356903076172e+00,6.920303344726562500e+00,6.968954563140869141e+00,7.002809524536132812e+00,7.036245346069335938e+00,7.074954986572265625e+00,7.114822387695312500e+00,7.154761791229248047e+00,7.198726177215576172e+00,7.239410400390625000e+00,7.279442787170410156e+00,7.318913459777832031e+00,7.355600357055664062e+00,7.390830039978027344e+00,7.430349826812744141e+00,7.467101573944091797e+00,7.501018047332763672e+00,7.531346321105957031e+00,7.558006763458251953e+00,7.581157684326171875e+00,7.606829166412353516e+00,7.629423618316650391e+00,7.645754814147949219e+00,7.670773506164550781e+00,7.683330059051513672e+00,7.687548160552978516e+00,7.683707714080810547e+00,7.684274196624755859e+00,7.681283473968505859e+00,7.678645133972167969e+00,7.677463531494140625e+00,7.673666954040527344e+00,7.667669773101806641e+00,7.661631584167480469e+00,7.655478000640869141e+00,7.647949218750000000e+00,7.640067577362060547e+00,7.631794452667236328e+00,7.624470710754394531e+00,7.618504524230957031e+00,7.609323024749755859e+00,7.604781627655029297e+00,7.603367805480957031e+00,7.597946166992187500e+00,7.588232994079589844e+00,7.570677280426025391e+00,7.548432826995849609e+00,7.517953872680664062e+00,7.472172260284423828e+00,7.424184799194335938e+00,7.366657733917236328e+00,7.342394828796386719e+00,7.320231437683105469e+00,7.297772884368896484e+00,7.277154922485351562e+00,7.259362220764160156e+00,7.244323253631591797e+00,7.231208324432373047e+00,7.214734554290771484e+00,7.198093891143798828e+00,7.184186458587646484e+00,7.169994354248046875e+00,7.153943061828613281e+00,7.137672901153564453e+00,7.118177413940429688e+00,7.097041606903076172e+00,7.076466560363769531e+00,7.058763027191162109e+00,7.039988517761230469e+00,7.021019935607910156e+00,7.002349853515625000e+00,6.985212326049804688e+00,6.968630790710449219e+00,6.947834014892578125e+00,6.929153442382812500e+00,6.904345512390136719e+00,6.871480941772460938e+00,6.835166454315185547e+00,6.788662910461425781e+00,6.763929367065429688e+00
5.331067562103271484e+00,5.367098331451416016e+00,5.404345512390136719e+00,5.443225860595703125e+00,5.481393337249755859e+00,5.518022537231445312e+00,5.553358554840087891e+00,5.585978507995605469e+00,5.617183685302734375e+00,5.649248123168945312e+00,5.683144092559814453e+00,5.717825889587402344e+00,5.753602504730224609e+00,5.791491508483886719e+00,5.828850746154785156e+00,5.867765426635742188e+00,5.907440185546875000e+00,5.944643497467041016e+00,5.982611656188964844e+00,6.020924091339111328e+00,6.061054706573486328e+00,6.099556922912597656e+00,6.138127326965332031e+00,6.176638603210449219e+00,6.212414741516113281e+00,6.250265598297119141e+00,6.290125846862792969e+00,6.333371639251708984e+00,6.378185272216796875e+00,6.423831939697265625e+00,6.466713905334472656e+00,6.505980014801025391e+00,6.543288707733154297e+00,6.583153724670410156e+00,6.620138645172119141e+00,6.655752182006835938e+00,6.693804264068603516e+00,6.729677200317382812e+00,6.770691394805908203e+00,6.835111618041992188e+00,6.911239624023437500e+00,6.958502769470214844e+00,6.992743015289306641e+00,7.029564380645751953e+00,7.067919254302978516e+00,7.108170032501220703e+00,7.147741794586181641e+00,7.192313194274902344e+00,7.232260704040527344e+00,7.269260406494140625e+00,7.307980537414550781e+00,7.344960212707519531e+00,7.383654117584228516e+00,7.421572685241699219e+00,7.457885265350341797e+00,7.492073535919189453e+00,7.523902416229248047e+00,7.551536083221435547e+00,7.576253890991210938e+00,7.602119922637939453e+00,7.624646186828613281e+00,7.640793323516845703e+00,7.663302421569824219e+00,7.675889492034912109e+00,7.680898666381835938e+00,7.676249504089355469e+00,7.677154064178466797e+00,7.674546718597412109e+00,7.672039985656738281e+00,7.670983314514160156e+00,7.667577743530273438e+00,7.662517547607421875e+00,7.657693862915039062e+00,7.652150154113769531e+00,7.645305156707763672e+00,7.638069629669189453e+00,7.630902767181396484e+00,7.623380184173583984e+00,7.618225097656250000e+00,7.609937667846679688e+00,7.605666637420654297e+00,7.603940963745117188e+00,7.598356723785400391e+00,7.590064048767089844e+00,7.573076725006103516e+00,7.550550460815429688e+00,7.519184589385986328e+00,7.476058483123779297e+00,7.426669120788574219e+00,7.369562149047851562e+00,7.345537185668945312e+00,7.324708461761474609e+00,7.301067352294921875e+00,7.281080722808837891e+00,7.262472152709960938e+00,7.246809482574462891e+00,7.233614921569824219e+00,7.217049121856689453e+00,7.200729846954345703e+00,7.186005115509033203e+00,7.171486854553222656e+00,7.155632495880126953e+00,7.139613151550292969e+00,7.120716571807861328e+00,7.098717212677001953e+00,7.077817916870117188e+00,7.060243129730224609e+00,7.040002822875976562e+00,7.019991874694824219e+00,7.002886295318603516e+00,6.986439228057861328e+00,6.969057559967041016e+00,6.948593616485595703e+00,6.928498744964599609e+00,6.902864933013916016e+00,6.867545127868652344e+00,6.828756809234619141e+00,6.788768768310546875e+00,6.765125751495361328e+00
5.327595233917236328e+00,5.364052772521972656e+00,5.401589393615722656e+00,5.441771030426025391e+00,5.479907035827636719e+00,5.515445709228515625e+00,5.550373077392578125e+00,5.583402156829833984e+00,5.614425659179687500e+00,5.647418975830078125e+00,5.681893348693847656e+00,5.717795848846435547e+00,5.753878593444824219e+00,5.791875839233398438e+00,5.828761100769042969e+00,5.866904735565185547e+00,5.906596183776855469e+00,5.943828105926513672e+00,5.981802940368652344e+00,6.019778251647949219e+00,6.059758186340332031e+00,6.098220348358154297e+00,6.137246131896972656e+00,6.175535678863525391e+00,6.211100578308105469e+00,6.248399257659912109e+00,6.287953376770019531e+00,6.330835342407226562e+00,6.374871253967285156e+00,6.420133590698242188e+00,6.463610649108886719e+00,6.502413749694824219e+00,6.540148735046386719e+00,6.579324722290039062e+00,6.616482734680175781e+00,6.652554512023925781e+00,6.689306259155273438e+00,6.724549770355224609e+00,6.765646457672119141e+00,6.830218315124511719e+00,6.902599334716796875e+00,6.951281070709228516e+00,6.986034393310546875e+00,7.024200439453125000e+00,7.061950683593750000e+00,7.103402137756347656e+00,7.141911029815673828e+00,7.184292793273925781e+00,7.224028110504150391e+00,7.260838031768798828e+00,7.298552036285400391e+00,7.336506843566894531e+00,7.374238967895507812e+00,7.414573192596435547e+00,7.452044486999511719e+00,7.485632896423339844e+00,7.517815589904785156e+00,7.547912597656250000e+00,7.573035717010498047e+00,7.598511219024658203e+00,7.621249198913574219e+00,7.638857364654541016e+00,7.659390449523925781e+00,7.671668529510498047e+00,7.677172183990478516e+00,7.673913478851318359e+00,7.674734115600585938e+00,7.672843456268310547e+00,7.670089244842529297e+00,7.668877124786376953e+00,7.665791511535644531e+00,7.661605358123779297e+00,7.657148838043212891e+00,7.651883125305175781e+00,7.645724296569824219e+00,7.638506412506103516e+00,7.631663322448730469e+00,7.623939037322998047e+00,7.618926525115966797e+00,7.611896991729736328e+00,7.607571601867675781e+00,7.606498241424560547e+00,7.601856231689453125e+00,7.593497276306152344e+00,7.576773166656494141e+00,7.554892063140869141e+00,7.524799346923828125e+00,7.481059551239013672e+00,7.432516098022460938e+00,7.377521514892578125e+00,7.349715709686279297e+00,7.328624725341796875e+00,7.307194232940673828e+00,7.287586212158203125e+00,7.269314765930175781e+00,7.252964496612548828e+00,7.239407539367675781e+00,7.222016811370849609e+00,7.204409122467041016e+00,7.188525199890136719e+00,7.173084259033203125e+00,7.156809806823730469e+00,7.140639781951904297e+00,7.121217727661132812e+00,7.098665237426757812e+00,7.077972888946533203e+00,7.059053421020507812e+00,7.037432670593261719e+00,7.017471313476562500e+00,7.000694751739501953e+00,6.983595371246337891e+00,6.965927124023437500e+00,6.946639537811279297e+00,6.926021575927734375e+00,6.899618148803710938e+00,6.865099906921386719e+00,6.831452846527099609e+00,6.793402194976806641e+00,6.766873836517333984e+00
5.324042797088623047e+00,5.359971523284912109e+00,5.397522449493408203e+00,5.437532901763916016e+00,5.475564002990722656e+00,5.511073112487792969e+00,5.545937061309814453e+00,5.579624176025390625e+00,5.611545562744140625e+00,5.643836498260498047e+00,5.678414821624755859e+00,5.715242862701416016e+00,5.752493381500244141e+00,5.790767669677734375e+00,5.827627182006835938e+00,5.865389347076416016e+00,5.904535293579101562e+00,5.941851139068603516e+00,5.979522228240966797e+00,6.017780303955078125e+00,6.058142662048339844e+00,6.096631050109863281e+00,6.135941982269287109e+00,6.174586296081542969e+00,6.208966255187988281e+00,6.246471405029296875e+00,6.286152839660644531e+00,6.328831672668457031e+00,6.371988296508789062e+00,6.416986465454101562e+00,6.459654331207275391e+00,6.498918533325195312e+00,6.536725521087646484e+00,6.576527595520019531e+00,6.613055229187011719e+00,6.648491859436035156e+00,6.684214591979980469e+00,6.718710899353027344e+00,6.760684013366699219e+00,6.820988178253173828e+00,6.893543243408203125e+00,6.944301605224609375e+00,6.980974197387695312e+00,7.020308017730712891e+00,7.056377410888671875e+00,7.097073554992675781e+00,7.134562969207763672e+00,7.176320075988769531e+00,7.215737819671630859e+00,7.251569271087646484e+00,7.287462234497070312e+00,7.325784683227539062e+00,7.365454196929931641e+00,7.405499935150146484e+00,7.445423603057861328e+00,7.480043888092041016e+00,7.512540817260742188e+00,7.542729377746582031e+00,7.568609237670898438e+00,7.594686985015869141e+00,7.617926597595214844e+00,7.637276649475097656e+00,7.655369281768798828e+00,7.669598579406738281e+00,7.675118446350097656e+00,7.672545909881591797e+00,7.673763275146484375e+00,7.670638561248779297e+00,7.668325901031494141e+00,7.667835712432861328e+00,7.665119171142578125e+00,7.661889553070068359e+00,7.657795906066894531e+00,7.652729511260986328e+00,7.646654605865478516e+00,7.639884471893310547e+00,7.633304595947265625e+00,7.626120567321777344e+00,7.621485710144042969e+00,7.615023612976074219e+00,7.611279487609863281e+00,7.611267566680908203e+00,7.607942104339599609e+00,7.600157260894775391e+00,7.584230899810791016e+00,7.562151908874511719e+00,7.530694007873535156e+00,7.487815380096435547e+00,7.439296722412109375e+00,7.386293411254882812e+00,7.354862213134765625e+00,7.332959175109863281e+00,7.312361240386962891e+00,7.294651985168457031e+00,7.276309013366699219e+00,7.258519172668457031e+00,7.244073390960693359e+00,7.225218296051025391e+00,7.207820892333984375e+00,7.191262722015380859e+00,7.174664497375488281e+00,7.157459259033203125e+00,7.140644550323486328e+00,7.121333122253417969e+00,7.098852634429931641e+00,7.077219009399414062e+00,7.057382106781005859e+00,7.035676956176757812e+00,7.015702724456787109e+00,6.998171329498291016e+00,6.980374813079833984e+00,6.963676929473876953e+00,6.944994926452636719e+00,6.925899028778076172e+00,6.898696422576904297e+00,6.863372802734375000e+00,6.836712837219238281e+00,6.796475410461425781e+00,6.769364833831787109e+00
5.321025848388671875e+00,5.356676578521728516e+00,5.395176887512207031e+00,5.435459613800048828e+00,5.474082469940185547e+00,5.509621143341064453e+00,5.544038295745849609e+00,5.578957557678222656e+00,5.610520839691162109e+00,5.642803192138671875e+00,5.677498340606689453e+00,5.714540481567382812e+00,5.752687454223632812e+00,5.791243076324462891e+00,5.828881263732910156e+00,5.865848541259765625e+00,5.904939651489257812e+00,5.942411422729492188e+00,5.980387687683105469e+00,6.018444061279296875e+00,6.058770179748535156e+00,6.097333908081054688e+00,6.137410163879394531e+00,6.175880908966064453e+00,6.209834098815917969e+00,6.247222900390625000e+00,6.286591053009033203e+00,6.329215049743652344e+00,6.371185779571533203e+00,6.414412021636962891e+00,6.457618236541748047e+00,6.496778488159179688e+00,6.534389495849609375e+00,6.574177265167236328e+00,6.611727714538574219e+00,6.646450996398925781e+00,6.681507110595703125e+00,6.715349197387695312e+00,6.755941390991210938e+00,6.815190315246582031e+00,6.887368202209472656e+00,6.936617374420166016e+00,6.972708702087402344e+00,7.011768341064453125e+00,7.047931671142578125e+00,7.087236881256103516e+00,7.124609470367431641e+00,7.165786743164062500e+00,7.206223011016845703e+00,7.240927696228027344e+00,7.276058197021484375e+00,7.313355922698974609e+00,7.352196693420410156e+00,7.395012378692626953e+00,7.434587001800537109e+00,7.469271183013916016e+00,7.501926422119140625e+00,7.532297134399414062e+00,7.557220935821533203e+00,7.583011627197265625e+00,7.605885505676269531e+00,7.626275062561035156e+00,7.644351959228515625e+00,7.658176898956298828e+00,7.665176868438720703e+00,7.662188529968261719e+00,7.663830757141113281e+00,7.661894321441650391e+00,7.659898757934570312e+00,7.659576892852783203e+00,7.657042026519775391e+00,7.653667449951171875e+00,7.650476455688476562e+00,7.645796298980712891e+00,7.640924453735351562e+00,7.635338783264160156e+00,7.629690647125244141e+00,7.623237133026123047e+00,7.618454456329345703e+00,7.612093448638916016e+00,7.609065055847167969e+00,7.609361648559570312e+00,7.606617450714111328e+00,7.598603725433349609e+00,7.582743644714355469e+00,7.561938285827636719e+00,7.530641555786132812e+00,7.488704681396484375e+00,7.440972805023193359e+00,7.389129638671875000e+00,7.357119560241699219e+00,7.334160804748535156e+00,7.315503120422363281e+00,7.297328948974609375e+00,7.276951789855957031e+00,7.258863449096679688e+00,7.244027614593505859e+00,7.225378513336181641e+00,7.207848072052001953e+00,7.189966201782226562e+00,7.172572612762451172e+00,7.154004573822021484e+00,7.136801242828369141e+00,7.117821216583251953e+00,7.095375537872314453e+00,7.074872493743896484e+00,7.054662704467773438e+00,7.032247543334960938e+00,7.012828826904296875e+00,6.994376659393310547e+00,6.977358818054199219e+00,6.960405349731445312e+00,6.942398071289062500e+00,6.923675537109375000e+00,6.894625663757324219e+00,6.859693527221679688e+00,6.837385654449462891e+00,6.791415214538574219e+00,6.772595882415771484e+00
5.317919254302978516e+00,5.354309082031250000e+00,5.393192768096923828e+00,5.434065341949462891e+00,5.473350048065185547e+00,5.509298324584960938e+00,5.544078826904296875e+00,5.579720020294189453e+00,5.612123012542724609e+00,5.644129753112792969e+00,5.678361892700195312e+00,5.714766979217529297e+00,5.752218246459960938e+00,5.790615081787109375e+00,5.827960968017578125e+00,5.865892887115478516e+00,5.905511856079101562e+00,5.944326877593994141e+00,5.982363224029541016e+00,6.019793510437011719e+00,6.059696674346923828e+00,6.097755908966064453e+00,6.137795925140380859e+00,6.176932334899902344e+00,6.211614608764648438e+00,6.249021053314208984e+00,6.288483142852783203e+00,6.329399585723876953e+00,6.370201587677001953e+00,6.412787437438964844e+00,6.455536365509033203e+00,6.494657993316650391e+00,6.532144069671630859e+00,6.571501255035400391e+00,6.608221054077148438e+00,6.643722534179687500e+00,6.678235530853271484e+00,6.711838245391845703e+00,6.752170562744140625e+00,6.810082435607910156e+00,6.880979537963867188e+00,6.931999683380126953e+00,6.966439247131347656e+00,7.005037307739257812e+00,7.041237354278564453e+00,7.079661369323730469e+00,7.115799427032470703e+00,7.156640052795410156e+00,7.196906566619873047e+00,7.232152938842773438e+00,7.267485141754150391e+00,7.304273605346679688e+00,7.343375205993652344e+00,7.384782791137695312e+00,7.424394607543945312e+00,7.458830356597900391e+00,7.491766452789306641e+00,7.523058891296386719e+00,7.548535823822021484e+00,7.573743820190429688e+00,7.596846103668212891e+00,7.616528511047363281e+00,7.634500026702880859e+00,7.648237228393554688e+00,7.654918670654296875e+00,7.651833534240722656e+00,7.654263973236083984e+00,7.652722835540771484e+00,7.651299476623535156e+00,7.651566028594970703e+00,7.648872852325439453e+00,7.646160125732421875e+00,7.643421173095703125e+00,7.640116691589355469e+00,7.635556221008300781e+00,7.630119800567626953e+00,7.625222206115722656e+00,7.619487285614013672e+00,7.615238189697265625e+00,7.608865737915039062e+00,7.606671810150146484e+00,7.607563018798828125e+00,7.604391098022460938e+00,7.595890522003173828e+00,7.580108642578125000e+00,7.559792518615722656e+00,7.529160022735595703e+00,7.488668918609619141e+00,7.439367771148681641e+00,7.388087272644042969e+00,7.355497360229492188e+00,7.333925724029541016e+00,7.315778255462646484e+00,7.296449661254882812e+00,7.277372837066650391e+00,7.260189056396484375e+00,7.243869781494140625e+00,7.224685668945312500e+00,7.206122875213623047e+00,7.187483310699462891e+00,7.169926166534423828e+00,7.150808334350585938e+00,7.132976531982421875e+00,7.113884449005126953e+00,7.091577053070068359e+00,7.071254730224609375e+00,7.050489902496337891e+00,7.028483867645263672e+00,7.009021759033203125e+00,6.990794181823730469e+00,6.973710536956787109e+00,6.955942153930664062e+00,6.940038681030273438e+00,6.919585704803466797e+00,6.889805316925048828e+00,6.853867053985595703e+00,6.824645996093750000e+00,6.794530868530273438e+00,6.780844211578369141e+00
5.315896034240722656e+00,5.352074146270751953e+00,5.391383171081542969e+00,5.432089805603027344e+00,5.471387863159179688e+00,5.508312225341796875e+00,5.543420791625976562e+00,5.579491615295410156e+00,5.612108707427978516e+00,5.643251419067382812e+00,5.677901744842529297e+00,5.714046001434326172e+00,5.751219272613525391e+00,5.789080619812011719e+00,5.826427459716796875e+00,5.864787101745605469e+00,5.904902935028076172e+00,5.943833827972412109e+00,5.981920719146728516e+00,6.019330978393554688e+00,6.059230804443359375e+00,6.097432136535644531e+00,6.136934280395507812e+00,6.176342010498046875e+00,6.212362289428710938e+00,6.250467300415039062e+00,6.288411140441894531e+00,6.327325820922851562e+00,6.367842197418212891e+00,6.409922599792480469e+00,6.452273368835449219e+00,6.491055965423583984e+00,6.527923107147216797e+00,6.567491531372070312e+00,6.604391098022460938e+00,6.639755249023437500e+00,6.674170494079589844e+00,6.707004547119140625e+00,6.746336460113525391e+00,6.804290771484375000e+00,6.875900745391845703e+00,6.925735950469970703e+00,6.958838462829589844e+00,6.997835159301757812e+00,7.034661293029785156e+00,7.071485519409179688e+00,7.107538223266601562e+00,7.147912979125976562e+00,7.188308238983154297e+00,7.224077701568603516e+00,7.259994029998779297e+00,7.297352313995361328e+00,7.334967136383056641e+00,7.375702381134033203e+00,7.414087295532226562e+00,7.447927951812744141e+00,7.481057643890380859e+00,7.513323307037353516e+00,7.539903640747070312e+00,7.565680503845214844e+00,7.589589118957519531e+00,7.608796596527099609e+00,7.625921726226806641e+00,7.640016078948974609e+00,7.648099422454833984e+00,7.645657539367675781e+00,7.648890495300292969e+00,7.647741317749023438e+00,7.646435737609863281e+00,7.646795749664306641e+00,7.644400119781494141e+00,7.642566680908203125e+00,7.640257358551025391e+00,7.637335300445556641e+00,7.632917404174804688e+00,7.628243923187255859e+00,7.623643875122070312e+00,7.617921352386474609e+00,7.614423274993896484e+00,7.608376502990722656e+00,7.607054233551025391e+00,7.607746124267578125e+00,7.604739189147949219e+00,7.597288608551025391e+00,7.580309867858886719e+00,7.559965610504150391e+00,7.529897689819335938e+00,7.488992691040039062e+00,7.439544677734375000e+00,7.388466835021972656e+00,7.356410026550292969e+00,7.334211826324462891e+00,7.315685272216796875e+00,7.297474384307861328e+00,7.279397964477539062e+00,7.260188579559326172e+00,7.243828296661376953e+00,7.224812507629394531e+00,7.204273223876953125e+00,7.185352325439453125e+00,7.167616367340087891e+00,7.147973060607910156e+00,7.129456043243408203e+00,7.110895156860351562e+00,7.088176727294921875e+00,7.067337512969970703e+00,7.046767711639404297e+00,7.024763584136962891e+00,7.005653858184814453e+00,6.988443374633789062e+00,6.969043731689453125e+00,6.949218273162841797e+00,6.935009956359863281e+00,6.915428638458251953e+00,6.881032943725585938e+00,6.846404552459716797e+00,6.819760799407958984e+00,6.800422191619873047e+00,6.782265186309814453e+00
5.314308643341064453e+00,5.351633071899414062e+00,5.390330791473388672e+00,5.430810451507568359e+00,5.470864772796630859e+00,5.508539199829101562e+00,5.544065952301025391e+00,5.579001426696777344e+00,5.611158847808837891e+00,5.642735481262207031e+00,5.677664756774902344e+00,5.714483261108398438e+00,5.751586914062500000e+00,5.789340972900390625e+00,5.826708793640136719e+00,5.864904403686523438e+00,5.905047416687011719e+00,5.943875789642333984e+00,5.981528282165527344e+00,6.018958568572998047e+00,6.058868408203125000e+00,6.097673892974853516e+00,6.136827468872070312e+00,6.176710605621337891e+00,6.212322235107421875e+00,6.250401496887207031e+00,6.287861824035644531e+00,6.325153827667236328e+00,6.364987373352050781e+00,6.406720161437988281e+00,6.448441982269287109e+00,6.486725330352783203e+00,6.523084163665771484e+00,6.562519073486328125e+00,6.599421977996826172e+00,6.635149478912353516e+00,6.669862270355224609e+00,6.701187610626220703e+00,6.740873336791992188e+00,6.797260761260986328e+00,6.869210243225097656e+00,6.919755458831787109e+00,6.952505111694335938e+00,6.990724086761474609e+00,7.027281284332275391e+00,7.064939022064208984e+00,7.101112842559814453e+00,7.141088962554931641e+00,7.181378364562988281e+00,7.215636730194091797e+00,7.250578403472900391e+00,7.290225982666015625e+00,7.328210353851318359e+00,7.367657661437988281e+00,7.405197143554687500e+00,7.437335968017578125e+00,7.470151901245117188e+00,7.503248691558837891e+00,7.529669284820556641e+00,7.557024955749511719e+00,7.581658840179443359e+00,7.600388050079345703e+00,7.618754386901855469e+00,7.632946968078613281e+00,7.641802787780761719e+00,7.639315128326416016e+00,7.643292903900146484e+00,7.642272949218750000e+00,7.640411376953125000e+00,7.640899658203125000e+00,7.639045238494873047e+00,7.637197494506835938e+00,7.635925769805908203e+00,7.633799552917480469e+00,7.629974365234375000e+00,7.625462532043457031e+00,7.621074676513671875e+00,7.615971088409423828e+00,7.612884044647216797e+00,7.607610702514648438e+00,7.606909751892089844e+00,7.607452869415283203e+00,7.604300975799560547e+00,7.596129894256591797e+00,7.578289985656738281e+00,7.559533119201660156e+00,7.529767990112304688e+00,7.489042282104492188e+00,7.437983512878417969e+00,7.385904312133789062e+00,7.356215000152587891e+00,7.333723068237304688e+00,7.315293788909912109e+00,7.298169612884521484e+00,7.279494762420654297e+00,7.260153293609619141e+00,7.244792461395263672e+00,7.224753379821777344e+00,7.203293323516845703e+00,7.184326171875000000e+00,7.166072368621826172e+00,7.145111560821533203e+00,7.126556396484375000e+00,7.107209682464599609e+00,7.084011077880859375e+00,7.062897205352783203e+00,7.042098522186279297e+00,7.020928382873535156e+00,7.001733779907226562e+00,6.984209537506103516e+00,6.962588310241699219e+00,6.944085121154785156e+00,6.930191040039062500e+00,6.907518863677978516e+00,6.872400283813476562e+00,6.844610691070556641e+00,6.818586826324462891e+00,6.802080154418945312e+00,6.779428482055664062e+00
