5.945652484893798828e+00,5.902236461639404297e+00,5.883795261383056641e+00,5.953617095947265625e+00,6.153389930725097656e+00,6.274951934814453125e+00,6.263159751892089844e+00,6.262048721313476562e+00,6.255902290344238281e+00,6.259554386138916016e+00,6.271516799926757812e+00,6.274206161499023438e+00,6.276742935180664062e+00,6.277079582214355469e+00,6.275878906250000000e+00,6.282008647918701172e+00,6.288094520568847656e+00,6.291009902954101562e+00,6.286551475524902344e+00,6.258590698242187500e+00,6.248594284057617188e+00,6.192057609558105469e+00,6.194944381713867188e+00,6.212611198425292969e+00,6.172877788543701172e+00,6.149681568145751953e+00,6.138490676879882812e+00,6.123309135437011719e+00,6.109004020690917969e+00,6.117971420288085938e+00,6.119062423706054688e+00,6.120515346527099609e+00,6.120209217071533203e+00,6.106451034545898438e+00,6.100963592529296875e+00,6.111518383026123047e+00,6.120409488677978516e+00,6.123825550079345703e+00,6.119824886322021484e+00,6.114265918731689453e+00,6.109115123748779297e+00,6.106822967529296875e+00,6.102891921997070312e+00,6.094260692596435547e+00,6.080398559570312500e+00,6.063314437866210938e+00,6.051821231842041016e+00,6.035312652587890625e+00,6.006993293762207031e+00,5.976288318634033203e+00,5.956713199615478516e+00,5.949691772460937500e+00,5.989389419555664062e+00,6.011456966400146484e+00,5.992845535278320312e+00,5.979407787322998047e+00,5.968464851379394531e+00,5.960192203521728516e+00,5.955955982208251953e+00,5.948678493499755859e+00,5.942696094512939453e+00,5.943633556365966797e+00,5.945389270782470703e+00,5.944970607757568359e+00,5.940336227416992188e+00,5.931206703186035156e+00,5.919969558715820312e+00,5.901267051696777344e+00,5.886766433715820312e+00,5.831246852874755859e+00,5.738485336303710938e+00,5.634497642517089844e+00,5.543746471405029297e+00,5.472462654113769531e+00,5.312333583831787109e+00,5.269280433654785156e+00,5.241621017456054688e+00,5.223284244537353516e+00,5.211645603179931641e+00,5.201669692993164062e+00,5.196331024169921875e+00,5.193840503692626953e+00,5.187973022460937500e+00,5.183987617492675781e+00,5.180609703063964844e+00,5.176446437835693359e+00,5.172470092773437500e+00,5.170378208160400391e+00,5.169849872589111328e+00,5.170519828796386719e+00,5.172511100769042969e+00,5.176795005798339844e+00,5.174017429351806641e+00,5.163874626159667969e+00,5.156187534332275391e+00,5.144467830657958984e+00,5.152009963989257812e+00,5.179844856262207031e+00,5.215188503265380859e+00,5.291946411132812500e+00,5.278274536132812500e+00,5.274377346038818359e+00,5.273221969604492188e+00,5.274941444396972656e+00,5.269235610961914062e+00,5.258776187896728516e+00,5.245243072509765625e+00,5.230437755584716797e+00,5.229502677917480469e+00,5.232827186584472656e+00,5.232408046722412109e+00,5.242278575897216797e+00,5.251012802124023438e+00,5.260528564453125000e+00,5.269123077392578125e+00,5.267706394195556641e+00,5.266327381134033203e+00,5.270843029022216797e+00,5.260817050933837891e+00
5.953134059906005859e+00,5.905053138732910156e+00,5.866836071014404297e+00,5.939284801483154297e+00,6.094092845916748047e+00,6.271841526031494141e+00,6.245835781097412109e+00,6.233075618743896484e+00,6.226687431335449219e+00,6.223596572875976562e+00,6.226156711578369141e+00,6.227473258972167969e+00,6.226525783538818359e+00,6.223449230194091797e+00,6.219166755676269531e+00,6.218671321868896484e+00,6.213477134704589844e+00,6.204644203186035156e+00,6.191717147827148438e+00,6.168415069580078125e+00,6.098924636840820312e+00,6.048507213592529297e+00,6.072233676910400391e+00,6.090087413787841797e+00,6.082362651824951172e+00,6.086369037628173828e+00,6.087365150451660156e+00,6.071960926055908203e+00,6.055023670196533203e+00,6.056890487670898438e+00,6.067728996276855469e+00,6.061538696289062500e+00,6.048320293426513672e+00,6.046982288360595703e+00,6.047410488128662109e+00,6.052583217620849609e+00,6.050883293151855469e+00,6.054020404815673828e+00,6.052209377288818359e+00,6.048093795776367188e+00,6.044259071350097656e+00,6.042512416839599609e+00,6.039245128631591797e+00,6.026408195495605469e+00,6.011376857757568359e+00,5.995056629180908203e+00,5.985465526580810547e+00,5.973004817962646484e+00,5.953557014465332031e+00,5.926397323608398438e+00,5.896313667297363281e+00,5.895485877990722656e+00,5.917887687683105469e+00,5.930932998657226562e+00,5.917537212371826172e+00,5.907547473907470703e+00,5.893343925476074219e+00,5.887184619903564453e+00,5.884463310241699219e+00,5.877552032470703125e+00,5.874205112457275391e+00,5.875196933746337891e+00,5.877363681793212891e+00,5.880076885223388672e+00,5.878325939178466797e+00,5.872899055480957031e+00,5.859928131103515625e+00,5.843482494354248047e+00,5.823146343231201172e+00,5.775506973266601562e+00,5.674196720123291016e+00,5.571481704711914062e+00,5.507064342498779297e+00,5.444177150726318359e+00,5.310260772705078125e+00,5.272405624389648438e+00,5.239016532897949219e+00,5.220979690551757812e+00,5.205400466918945312e+00,5.193237304687500000e+00,5.185923576354980469e+00,5.182028293609619141e+00,5.177337646484375000e+00,5.172460556030273438e+00,5.169351100921630859e+00,5.164918422698974609e+00,5.159845352172851562e+00,5.158085346221923828e+00,5.157183170318603516e+00,5.157871246337890625e+00,5.161054134368896484e+00,5.165621280670166016e+00,5.162532806396484375e+00,5.153124332427978516e+00,5.143163681030273438e+00,5.130922317504882812e+00,5.130882740020751953e+00,5.162373542785644531e+00,5.190580844879150391e+00,5.271428108215332031e+00,5.258399486541748047e+00,5.252456188201904297e+00,5.253351211547851562e+00,5.256435394287109375e+00,5.250180721282958984e+00,5.241335391998291016e+00,5.233932971954345703e+00,5.223779201507568359e+00,5.219149112701416016e+00,5.218352794647216797e+00,5.223436355590820312e+00,5.240873813629150391e+00,5.254296779632568359e+00,5.251761913299560547e+00,5.255876541137695312e+00,5.245440006256103516e+00,5.244093418121337891e+00,5.236404418945312500e+00,5.205053329467773438e+00
5.942662239074707031e+00,5.906090736389160156e+00,5.879401206970214844e+00,5.881520271301269531e+00,5.966374397277832031e+00,6.220254898071289062e+00,6.209928512573242188e+00,6.193966865539550781e+00,6.188971519470214844e+00,6.179950714111328125e+00,6.166713237762451172e+00,6.163004875183105469e+00,6.158386707305908203e+00,6.125834465026855469e+00,6.121601581573486328e+00,6.131908416748046875e+00,6.131830215454101562e+00,6.128829479217529297e+00,6.118236064910888672e+00,6.069273471832275391e+00,6.006271839141845703e+00,6.004918098449707031e+00,5.988335132598876953e+00,5.985860824584960938e+00,5.994861602783203125e+00,6.002186775207519531e+00,6.008128643035888672e+00,6.012516975402832031e+00,6.003969669342041016e+00,5.994781970977783203e+00,5.991566658020019531e+00,5.986929416656494141e+00,5.978774547576904297e+00,5.982609272003173828e+00,5.984698295593261719e+00,5.990382671356201172e+00,5.997961997985839844e+00,6.002596855163574219e+00,6.003549098968505859e+00,5.992467880249023438e+00,5.984688282012939453e+00,5.977117538452148438e+00,5.969031810760498047e+00,5.955267906188964844e+00,5.935034275054931641e+00,5.913700103759765625e+00,5.911162853240966797e+00,5.912043571472167969e+00,5.898831844329833984e+00,5.853781223297119141e+00,5.836297035217285156e+00,5.832992553710937500e+00,5.848423957824707031e+00,5.850888729095458984e+00,5.833740711212158203e+00,5.827787399291992188e+00,5.819342136383056641e+00,5.812290191650390625e+00,5.808730602264404297e+00,5.804207324981689453e+00,5.798728466033935547e+00,5.799492359161376953e+00,5.801459312438964844e+00,5.803408622741699219e+00,5.803556919097900391e+00,5.803823471069335938e+00,5.796959400177001953e+00,5.797178745269775391e+00,5.787844181060791016e+00,5.738667011260986328e+00,5.637149810791015625e+00,5.536471366882324219e+00,5.475417613983154297e+00,5.425559520721435547e+00,5.315117359161376953e+00,5.274106502532958984e+00,5.235434532165527344e+00,5.218086719512939453e+00,5.203087806701660156e+00,5.190749645233154297e+00,5.180639266967773438e+00,5.174021720886230469e+00,5.166192054748535156e+00,5.157161235809326172e+00,5.153320789337158203e+00,5.149016857147216797e+00,5.144587516784667969e+00,5.142421722412109375e+00,5.140972137451171875e+00,5.142175197601318359e+00,5.147428989410400391e+00,5.154178619384765625e+00,5.152220249176025391e+00,5.143018245697021484e+00,5.130460262298583984e+00,5.114570140838623047e+00,5.119444370269775391e+00,5.153891086578369141e+00,5.182457923889160156e+00,5.263765335083007812e+00,5.242357254028320312e+00,5.232732772827148438e+00,5.233283519744873047e+00,5.235849380493164062e+00,5.238165855407714844e+00,5.232370376586914062e+00,5.220735073089599609e+00,5.205073833465576172e+00,5.197572231292724609e+00,5.204161167144775391e+00,5.215511322021484375e+00,5.225293159484863281e+00,5.226133823394775391e+00,5.224747180938720703e+00,5.228180408477783203e+00,5.214411735534667969e+00,5.204633235931396484e+00,5.173457622528076172e+00,5.150259017944335938e+00
5.899971961975097656e+00,5.853086948394775391e+00,5.829727649688720703e+00,5.836840629577636719e+00,5.875845432281494141e+00,6.176744461059570312e+00,6.146205425262451172e+00,6.119539260864257812e+00,6.122586250305175781e+00,6.104918003082275391e+00,6.083146572113037109e+00,6.058380126953125000e+00,6.037243843078613281e+00,6.030870914459228516e+00,6.027870655059814453e+00,6.046109199523925781e+00,6.057043552398681641e+00,6.016693592071533203e+00,5.956754684448242188e+00,5.920417308807373047e+00,5.938221931457519531e+00,5.949672698974609375e+00,5.951974391937255859e+00,5.945524692535400391e+00,5.938089370727539062e+00,5.933900833129882812e+00,5.943609237670898438e+00,5.950500488281250000e+00,5.948146820068359375e+00,5.939240932464599609e+00,5.931475639343261719e+00,5.930369853973388672e+00,5.929508209228515625e+00,5.932968139648437500e+00,5.937614917755126953e+00,5.939075946807861328e+00,5.938094615936279297e+00,5.937924385070800781e+00,5.938334941864013672e+00,5.934217453002929688e+00,5.927359104156494141e+00,5.919392585754394531e+00,5.905578613281250000e+00,5.887303352355957031e+00,5.868142604827880859e+00,5.843543529510498047e+00,5.828708648681640625e+00,5.821454524993896484e+00,5.793477058410644531e+00,5.773032188415527344e+00,5.772058010101318359e+00,5.767514705657958984e+00,5.781480789184570312e+00,5.777112960815429688e+00,5.759058952331542969e+00,5.755418777465820312e+00,5.747054576873779297e+00,5.742668628692626953e+00,5.735319614410400391e+00,5.729675292968750000e+00,5.724744796752929688e+00,5.727884292602539062e+00,5.730869293212890625e+00,5.726550102233886719e+00,5.725301742553710938e+00,5.726588726043701172e+00,5.726923942565917969e+00,5.725239276885986328e+00,5.719769954681396484e+00,5.672693252563476562e+00,5.578495025634765625e+00,5.491015434265136719e+00,5.437305927276611328e+00,5.406274795532226562e+00,5.322705745697021484e+00,5.281614780426025391e+00,5.234074115753173828e+00,5.215720176696777344e+00,5.203356266021728516e+00,5.191977024078369141e+00,5.179802894592285156e+00,5.171022891998291016e+00,5.158736705780029297e+00,5.148095607757568359e+00,5.141298770904541016e+00,5.136914253234863281e+00,5.133267402648925781e+00,5.129487514495849609e+00,5.128134727478027344e+00,5.131434917449951172e+00,5.138259887695312500e+00,5.144306182861328125e+00,5.142381191253662109e+00,5.131334781646728516e+00,5.113519668579101562e+00,5.097845554351806641e+00,5.103017807006835938e+00,5.137928485870361328e+00,5.170845508575439453e+00,5.228595733642578125e+00,5.217381000518798828e+00,5.211634635925292969e+00,5.218955516815185547e+00,5.220586776733398438e+00,5.218831062316894531e+00,5.210436820983886719e+00,5.200076103210449219e+00,5.188910007476806641e+00,5.182404994964599609e+00,5.187401771545410156e+00,5.190275669097900391e+00,5.192766666412353516e+00,5.189244270324707031e+00,5.189263343811035156e+00,5.186011791229248047e+00,5.174879550933837891e+00,5.163964271545410156e+00,5.140471935272216797e+00,5.118357658386230469e+00
5.817941188812255859e+00,5.808082103729248047e+00,5.804351329803466797e+00,5.839054584503173828e+00,5.883366584777832031e+00,6.103780746459960938e+00,6.085074901580810547e+00,6.046122550964355469e+00,6.042072296142578125e+00,6.036920547485351562e+00,6.032259464263916016e+00,6.011981964111328125e+00,6.009121894836425781e+00,6.000524520874023438e+00,5.966402053833007812e+00,5.914316177368164062e+00,5.865466117858886719e+00,5.841985702514648438e+00,5.843684673309326172e+00,5.863146781921386719e+00,5.882673263549804688e+00,5.878204822540283203e+00,5.877920150756835938e+00,5.869026660919189453e+00,5.871409893035888672e+00,5.880633354187011719e+00,5.884839534759521484e+00,5.887898445129394531e+00,5.892169952392578125e+00,5.891339778900146484e+00,5.890321254730224609e+00,5.892964363098144531e+00,5.895222663879394531e+00,5.896304130554199219e+00,5.895608425140380859e+00,5.887605667114257812e+00,5.879364013671875000e+00,5.875725746154785156e+00,5.871717453002929688e+00,5.870822906494140625e+00,5.868830680847167969e+00,5.865354537963867188e+00,5.850966930389404297e+00,5.833197593688964844e+00,5.814971446990966797e+00,5.794801235198974609e+00,5.773594379425048828e+00,5.752903461456298828e+00,5.734286308288574219e+00,5.718301773071289062e+00,5.713739395141601562e+00,5.705603122711181641e+00,5.707414150238037109e+00,5.701632499694824219e+00,5.683360099792480469e+00,5.669140815734863281e+00,5.666240692138671875e+00,5.663135528564453125e+00,5.656607627868652344e+00,5.653091907501220703e+00,5.650645256042480469e+00,5.648718833923339844e+00,5.644889354705810547e+00,5.643272876739501953e+00,5.647757530212402344e+00,5.650231838226318359e+00,5.644400596618652344e+00,5.638200759887695312e+00,5.621913909912109375e+00,5.571166515350341797e+00,5.499864578247070312e+00,5.439648628234863281e+00,5.402005672454833984e+00,5.381436824798583984e+00,5.320650577545166016e+00,5.284242630004882812e+00,5.241072177886962891e+00,5.222481250762939453e+00,5.208101272583007812e+00,5.196099758148193359e+00,5.182992935180664062e+00,5.174301624298095703e+00,5.161200523376464844e+00,5.150949478149414062e+00,5.143908500671386719e+00,5.136930942535400391e+00,5.132550716400146484e+00,5.128672599792480469e+00,5.128627777099609375e+00,5.132379531860351562e+00,5.138622283935546875e+00,5.141658782958984375e+00,5.136958122253417969e+00,5.117799758911132812e+00,5.101582050323486328e+00,5.091107845306396484e+00,5.093406200408935547e+00,5.128803253173828125e+00,5.161519050598144531e+00,5.197283267974853516e+00,5.201300144195556641e+00,5.195460796356201172e+00,5.196174144744873047e+00,5.194485664367675781e+00,5.195469379425048828e+00,5.194019794464111328e+00,5.187181949615478516e+00,5.174365043640136719e+00,5.166108608245849609e+00,5.163414955139160156e+00,5.162798881530761719e+00,5.161459922790527344e+00,5.157454967498779297e+00,5.156929492950439453e+00,5.150710582733154297e+00,5.141200065612792969e+00,5.133660793304443359e+00,5.118510246276855469e+00,5.091140747070312500e+00
5.752911567687988281e+00,5.697072029113769531e+00,5.693167686462402344e+00,5.741747856140136719e+00,5.829963207244873047e+00,6.041079044342041016e+00,6.034941196441650391e+00,5.992002487182617188e+00,6.003189563751220703e+00,5.985096931457519531e+00,5.927640438079833984e+00,5.892419815063476562e+00,5.878293514251708984e+00,5.872816562652587891e+00,5.855576992034912109e+00,5.817636013031005859e+00,5.815427303314208984e+00,5.822453022003173828e+00,5.822014808654785156e+00,5.821237564086914062e+00,5.819274902343750000e+00,5.813145637512207031e+00,5.809542179107666016e+00,5.813237190246582031e+00,5.818063259124755859e+00,5.822053432464599609e+00,5.821114063262939453e+00,5.818135261535644531e+00,5.822133064270019531e+00,5.828854560852050781e+00,5.833465576171875000e+00,5.839799404144287109e+00,5.837243080139160156e+00,5.830995559692382812e+00,5.830068588256835938e+00,5.830306529998779297e+00,5.830084800720214844e+00,5.827112197875976562e+00,5.817451953887939453e+00,5.807605743408203125e+00,5.799265861511230469e+00,5.791201591491699219e+00,5.783465385437011719e+00,5.770452499389648438e+00,5.753668308258056641e+00,5.738564014434814453e+00,5.722044467926025391e+00,5.705470085144042969e+00,5.690099716186523438e+00,5.668622493743896484e+00,5.651328563690185547e+00,5.638020038604736328e+00,5.633741855621337891e+00,5.624518871307373047e+00,5.609762191772460938e+00,5.606151103973388672e+00,5.608201503753662109e+00,5.605093002319335938e+00,5.595927715301513672e+00,5.586183071136474609e+00,5.575607776641845703e+00,5.566570281982421875e+00,5.568100452423095703e+00,5.569645881652832031e+00,5.572027206420898438e+00,5.571608066558837891e+00,5.568110466003417969e+00,5.562729358673095703e+00,5.536879062652587891e+00,5.487875461578369141e+00,5.430398941040039062e+00,5.397022247314453125e+00,5.370379447937011719e+00,5.349847793579101562e+00,5.301751136779785156e+00,5.279234409332275391e+00,5.244701385498046875e+00,5.222124099731445312e+00,5.211181163787841797e+00,5.199943065643310547e+00,5.186015605926513672e+00,5.176786422729492188e+00,5.162414550781250000e+00,5.151505947113037109e+00,5.143904209136962891e+00,5.137220382690429688e+00,5.131901741027832031e+00,5.126528263092041016e+00,5.125309467315673828e+00,5.127414703369140625e+00,5.126339912414550781e+00,5.126387119293212891e+00,5.118155002593994141e+00,5.099339485168457031e+00,5.083672046661376953e+00,5.071945190429687500e+00,5.080781936645507812e+00,5.109210968017578125e+00,5.142982959747314453e+00,5.174063682556152344e+00,5.181132793426513672e+00,5.176677703857421875e+00,5.178037166595458984e+00,5.178984165191650391e+00,5.179308414459228516e+00,5.175515174865722656e+00,5.165104866027832031e+00,5.152196884155273438e+00,5.142004489898681641e+00,5.134301662445068359e+00,5.130576610565185547e+00,5.125948905944824219e+00,5.116889476776123047e+00,5.114494800567626953e+00,5.110531806945800781e+00,5.103187084197998047e+00,5.092392444610595703e+00,5.074669837951660156e+00,5.051364898681640625e+00
5.694142341613769531e+00,5.687552928924560547e+00,5.668610095977783203e+00,5.704842090606689453e+00,5.771232128143310547e+00,5.933242321014404297e+00,5.981558799743652344e+00,5.940270423889160156e+00,5.916418552398681641e+00,5.808722972869873047e+00,5.778268337249755859e+00,5.785175800323486328e+00,5.787617683410644531e+00,5.799257755279541016e+00,5.804396152496337891e+00,5.788287162780761719e+00,5.776325225830078125e+00,5.768546104431152344e+00,5.767828941345214844e+00,5.770702362060546875e+00,5.762814998626708984e+00,5.754820346832275391e+00,5.750593662261962891e+00,5.753181934356689453e+00,5.755842685699462891e+00,5.754917621612548828e+00,5.757025718688964844e+00,5.758225917816162109e+00,5.762285709381103516e+00,5.769031524658203125e+00,5.775486946105957031e+00,5.780652046203613281e+00,5.777581214904785156e+00,5.771905899047851562e+00,5.767488002777099609e+00,5.764275550842285156e+00,5.760884284973144531e+00,5.755829334259033203e+00,5.743460655212402344e+00,5.734156608581542969e+00,5.728915214538574219e+00,5.722530364990234375e+00,5.708709239959716797e+00,5.689405918121337891e+00,5.676284313201904297e+00,5.663807392120361328e+00,5.656271457672119141e+00,5.648848056793212891e+00,5.634802341461181641e+00,5.619058609008789062e+00,5.597455978393554688e+00,5.581335544586181641e+00,5.570231437683105469e+00,5.560423374176025391e+00,5.556592941284179688e+00,5.554767608642578125e+00,5.550149440765380859e+00,5.540757656097412109e+00,5.527875900268554688e+00,5.517517566680908203e+00,5.505896568298339844e+00,5.503775119781494141e+00,5.504895210266113281e+00,5.501863002777099609e+00,5.501675605773925781e+00,5.501715660095214844e+00,5.497346401214599609e+00,5.493453979492187500e+00,5.477857112884521484e+00,5.433421134948730469e+00,5.382332801818847656e+00,5.343707084655761719e+00,5.320264816284179688e+00,5.299656867980957031e+00,5.282743453979492188e+00,5.283658504486083984e+00,5.246535778045654297e+00,5.223986148834228516e+00,5.214388370513916016e+00,5.201930999755859375e+00,5.185915946960449219e+00,5.173474788665771484e+00,5.160441398620605469e+00,5.148613452911376953e+00,5.140668869018554688e+00,5.135870933532714844e+00,5.131474018096923828e+00,5.126181602478027344e+00,5.122084140777587891e+00,5.117363452911376953e+00,5.114642143249511719e+00,5.116855621337890625e+00,5.105564117431640625e+00,5.082569599151611328e+00,5.056984424591064453e+00,5.049609184265136719e+00,5.059227943420410156e+00,5.080939292907714844e+00,5.107709407806396484e+00,5.145557403564453125e+00,5.144672870635986328e+00,5.145676136016845703e+00,5.147104263305664062e+00,5.147222995758056641e+00,5.146801948547363281e+00,5.142902374267578125e+00,5.130521774291992188e+00,5.118290901184082031e+00,5.108849525451660156e+00,5.100125789642333984e+00,5.093192577362060547e+00,5.087737560272216797e+00,5.079838275909423828e+00,5.077135562896728516e+00,5.069399356842041016e+00,5.056016921997070312e+00,5.044772148132324219e+00,5.030764102935791016e+00,5.018749237060546875e+00
5.661869525909423828e+00,5.660140991210937500e+00,5.643478870391845703e+00,5.651420116424560547e+00,5.693243503570556641e+00,5.758449077606201172e+00,5.811220169067382812e+00,5.788776874542236328e+00,5.749247550964355469e+00,5.747612953186035156e+00,5.774270534515380859e+00,5.785210609436035156e+00,5.771117687225341797e+00,5.762869358062744141e+00,5.755740165710449219e+00,5.734077930450439453e+00,5.723502635955810547e+00,5.714082717895507812e+00,5.709137439727783203e+00,5.707504749298095703e+00,5.699876308441162109e+00,5.696409702301025391e+00,5.696395874023437500e+00,5.699963569641113281e+00,5.706791400909423828e+00,5.708940029144287109e+00,5.711924552917480469e+00,5.717849254608154297e+00,5.719172477722167969e+00,5.721066474914550781e+00,5.725308418273925781e+00,5.732804775238037109e+00,5.737439632415771484e+00,5.734469413757324219e+00,5.725100040435791016e+00,5.711978912353515625e+00,5.701895713806152344e+00,5.691552162170410156e+00,5.681792736053466797e+00,5.671009540557861328e+00,5.663094043731689453e+00,5.651066303253173828e+00,5.636108398437500000e+00,5.622992515563964844e+00,5.616345882415771484e+00,5.605886459350585938e+00,5.599858283996582031e+00,5.595304012298583984e+00,5.582074642181396484e+00,5.568060398101806641e+00,5.548377513885498047e+00,5.530191421508789062e+00,5.510184764862060547e+00,5.497129440307617188e+00,5.489102840423583984e+00,5.478918075561523438e+00,5.467919826507568359e+00,5.459136486053466797e+00,5.453177452087402344e+00,5.444120883941650391e+00,5.441282749176025391e+00,5.442251682281494141e+00,5.433794021606445312e+00,5.431253433227539062e+00,5.436471939086914062e+00,5.435908317565917969e+00,5.429963588714599609e+00,5.429927349090576172e+00,5.420056819915771484e+00,5.380762100219726562e+00,5.327831268310546875e+00,5.295873641967773438e+00,5.275935173034667969e+00,5.269937515258789062e+00,5.263288021087646484e+00,5.262237071990966797e+00,5.241563320159912109e+00,5.228736400604248047e+00,5.213219642639160156e+00,5.194231510162353516e+00,5.182329177856445312e+00,5.171883106231689453e+00,5.160511493682861328e+00,5.147575855255126953e+00,5.138526439666748047e+00,5.133261680603027344e+00,5.123219490051269531e+00,5.111197948455810547e+00,5.106808662414550781e+00,5.109565258026123047e+00,5.103924751281738281e+00,5.094281673431396484e+00,5.075419902801513672e+00,5.051002979278564453e+00,5.038936138153076172e+00,5.028347015380859375e+00,5.040910720825195312e+00,5.065011024475097656e+00,5.087852001190185547e+00,5.112738132476806641e+00,5.107263565063476562e+00,5.105196475982666016e+00,5.106452465057373047e+00,5.106918811798095703e+00,5.105940341949462891e+00,5.101803779602050781e+00,5.089159965515136719e+00,5.078802108764648438e+00,5.068861007690429688e+00,5.057719230651855469e+00,5.051967620849609375e+00,5.048748016357421875e+00,5.041819572448730469e+00,5.035225868225097656e+00,5.027138710021972656e+00,5.016034603118896484e+00,5.007575511932373047e+00,4.997721672058105469e+00,4.978262901306152344e+00
5.628023147583007812e+00,5.631040096282958984e+00,5.594497680664062500e+00,5.581769943237304688e+00,5.619069099426269531e+00,5.696545600891113281e+00,5.709403038024902344e+00,5.702676773071289062e+00,5.702157974243164062e+00,5.701915264129638672e+00,5.700555324554443359e+00,5.705348491668701172e+00,5.696583747863769531e+00,5.689706325531005859e+00,5.688910007476806641e+00,5.687429904937744141e+00,5.675767421722412109e+00,5.665861606597900391e+00,5.660217285156250000e+00,5.661457538604736328e+00,5.658270359039306641e+00,5.660068511962890625e+00,5.660697460174560547e+00,5.667670726776123047e+00,5.672085762023925781e+00,5.672132492065429688e+00,5.677438259124755859e+00,5.679255962371826172e+00,5.680485725402832031e+00,5.684662342071533203e+00,5.686978340148925781e+00,5.690188407897949219e+00,5.691454887390136719e+00,5.690264225006103516e+00,5.683370590209960938e+00,5.672781944274902344e+00,5.661891937255859375e+00,5.648320198059082031e+00,5.630914688110351562e+00,5.617362499237060547e+00,5.604041099548339844e+00,5.594364643096923828e+00,5.584215641021728516e+00,5.571177959442138672e+00,5.559889316558837891e+00,5.547227859497070312e+00,5.535632133483886719e+00,5.526729106903076172e+00,5.520973682403564453e+00,5.508815765380859375e+00,5.496212005615234375e+00,5.478698730468750000e+00,5.459750175476074219e+00,5.444822788238525391e+00,5.431470870971679688e+00,5.417861461639404297e+00,5.410678863525390625e+00,5.403551101684570312e+00,5.392209529876708984e+00,5.383614540100097656e+00,5.381822109222412109e+00,5.372725009918212891e+00,5.366653919219970703e+00,5.365393638610839844e+00,5.372773647308349609e+00,5.375540733337402344e+00,5.373330116271972656e+00,5.372179031372070312e+00,5.353785514831542969e+00,5.318978309631347656e+00,5.269593715667724609e+00,5.248286247253417969e+00,5.236248970031738281e+00,5.237409591674804688e+00,5.229350090026855469e+00,5.233640193939208984e+00,5.230715274810791016e+00,5.222250938415527344e+00,5.210026264190673828e+00,5.193988800048828125e+00,5.177263736724853516e+00,5.162517070770263672e+00,5.149545669555664062e+00,5.139246940612792969e+00,5.129737377166748047e+00,5.117088794708251953e+00,5.109395027160644531e+00,5.102813720703125000e+00,5.096877574920654297e+00,5.083983898162841797e+00,5.066435337066650391e+00,5.062541484832763672e+00,5.053329467773437500e+00,5.034608364105224609e+00,5.007453441619873047e+00,4.994947433471679688e+00,5.012506008148193359e+00,5.038053512573242188e+00,5.064387798309326172e+00,5.081110000610351562e+00,5.074260711669921875e+00,5.072855949401855469e+00,5.074141979217529297e+00,5.071723461151123047e+00,5.066533088684082031e+00,5.059697151184082031e+00,5.044623851776123047e+00,5.033153533935546875e+00,5.022572517395019531e+00,5.013910293579101562e+00,5.008708477020263672e+00,5.003247261047363281e+00,4.998005390167236328e+00,4.991387367248535156e+00,4.977347850799560547e+00,4.969634532928466797e+00,4.958530902862548828e+00,4.941463470458984375e+00,4.923903942108154297e+00
5.552022933959960938e+00,5.535264492034912109e+00,5.519160747528076172e+00,5.511861801147460938e+00,5.551508903503417969e+00,5.653407573699951172e+00,5.687672138214111328e+00,5.667071342468261719e+00,5.654045581817626953e+00,5.646678924560546875e+00,5.648687839508056641e+00,5.649372577667236328e+00,5.652060985565185547e+00,5.646935939788818359e+00,5.642453670501708984e+00,5.630914688110351562e+00,5.615991592407226562e+00,5.603923320770263672e+00,5.591129779815673828e+00,5.588508129119873047e+00,5.594905853271484375e+00,5.604547500610351562e+00,5.607508659362792969e+00,5.613133430480957031e+00,5.613330841064453125e+00,5.611184120178222656e+00,5.616451263427734375e+00,5.618280410766601562e+00,5.632288932800292969e+00,5.638089656829833984e+00,5.636840343475341797e+00,5.625488281250000000e+00,5.611906051635742188e+00,5.606148719787597656e+00,5.607533454895019531e+00,5.602751255035400391e+00,5.583907604217529297e+00,5.571738243103027344e+00,5.566163539886474609e+00,5.561129570007324219e+00,5.554108142852783203e+00,5.540126800537109375e+00,5.520431041717529297e+00,5.502596378326416016e+00,5.489462375640869141e+00,5.480698108673095703e+00,5.473291397094726562e+00,5.465234756469726562e+00,5.458468437194824219e+00,5.452000141143798828e+00,5.440026760101318359e+00,5.428396224975585938e+00,5.412391185760498047e+00,5.396265029907226562e+00,5.378493785858154297e+00,5.365960121154785156e+00,5.357369899749755859e+00,5.347356796264648438e+00,5.338352680206298828e+00,5.325370311737060547e+00,5.312929153442382812e+00,5.309288501739501953e+00,5.304471015930175781e+00,5.302372455596923828e+00,5.308980941772460938e+00,5.313279628753662109e+00,5.313531398773193359e+00,5.312118530273437500e+00,5.292735576629638672e+00,5.265984535217285156e+00,5.227107524871826172e+00,5.203907012939453125e+00,5.190232753753662109e+00,5.200825691223144531e+00,5.208862781524658203e+00,5.212149143218994141e+00,5.211167812347412109e+00,5.207040309906005859e+00,5.197258949279785156e+00,5.176195144653320312e+00,5.155265331268310547e+00,5.134536266326904297e+00,5.123225688934326172e+00,5.109828472137451172e+00,5.099147319793701172e+00,5.095417976379394531e+00,5.103809833526611328e+00,5.092078208923339844e+00,5.068729877471923828e+00,5.051805019378662109e+00,5.051324844360351562e+00,5.049234390258789062e+00,5.025856494903564453e+00,4.989135265350341797e+00,4.970449924468994141e+00,4.972361564636230469e+00,4.985009670257568359e+00,5.014193534851074219e+00,5.037105083465576172e+00,5.051475048065185547e+00,5.045460700988769531e+00,5.040360927581787109e+00,5.039539813995361328e+00,5.034569263458251953e+00,5.023664951324462891e+00,5.011980533599853516e+00,4.994410991668701172e+00,4.981164932250976562e+00,4.971557140350341797e+00,4.964320182800292969e+00,4.958364963531494141e+00,4.953066349029541016e+00,4.948207855224609375e+00,4.941502094268798828e+00,4.932500839233398438e+00,4.919241905212402344e+00,4.905548572540283203e+00,4.894086837768554688e+00,4.883195877075195312e+00
5.500115394592285156e+00,5.497307300567626953e+00,5.490556716918945312e+00,5.480460643768310547e+00,5.502736091613769531e+00,5.611070156097412109e+00,5.664591789245605469e+00,5.639298915863037109e+00,5.621724128723144531e+00,5.616286754608154297e+00,5.624456405639648438e+00,5.632467746734619141e+00,5.631608963012695312e+00,5.619280815124511719e+00,5.593278884887695312e+00,5.568084239959716797e+00,5.550219058990478516e+00,5.540193080902099609e+00,5.535946846008300781e+00,5.536455631256103516e+00,5.537349224090576172e+00,5.539438247680664062e+00,5.540894031524658203e+00,5.539014816284179688e+00,5.541178703308105469e+00,5.542273521423339844e+00,5.538284778594970703e+00,5.535820484161376953e+00,5.545609951019287109e+00,5.554224014282226562e+00,5.559291362762451172e+00,5.548625469207763672e+00,5.533403396606445312e+00,5.524710655212402344e+00,5.523232936859130859e+00,5.508861064910888672e+00,5.501078605651855469e+00,5.499930381774902344e+00,5.497266292572021484e+00,5.488838672637939453e+00,5.478105545043945312e+00,5.468554496765136719e+00,5.457818031311035156e+00,5.450451850891113281e+00,5.442036628723144531e+00,5.431315898895263672e+00,5.422636508941650391e+00,5.412389755249023438e+00,5.405009269714355469e+00,5.399450302124023438e+00,5.386537075042724609e+00,5.377149581909179688e+00,5.365025043487548828e+00,5.348040580749511719e+00,5.330015182495117188e+00,5.311121940612792969e+00,5.298109054565429688e+00,5.288190364837646484e+00,5.280443191528320312e+00,5.268874645233154297e+00,5.262951850891113281e+00,5.260939121246337891e+00,5.256316661834716797e+00,5.253136157989501953e+00,5.251456260681152344e+00,5.253854274749755859e+00,5.257138252258300781e+00,5.261097431182861328e+00,5.252158641815185547e+00,5.231095790863037109e+00,5.196798801422119141e+00,5.173080921173095703e+00,5.154504299163818359e+00,5.170338153839111328e+00,5.164171218872070312e+00,5.157509326934814453e+00,5.168298244476318359e+00,5.171236991882324219e+00,5.162394523620605469e+00,5.146611213684082031e+00,5.127644538879394531e+00,5.106648445129394531e+00,5.087557792663574219e+00,5.076187610626220703e+00,5.074937343597412109e+00,5.067412853240966797e+00,5.053055286407470703e+00,5.038916587829589844e+00,5.040250778198242188e+00,5.040418624877929688e+00,5.017846584320068359e+00,4.994769096374511719e+00,4.972296714782714844e+00,4.953853607177734375e+00,4.943165302276611328e+00,4.940783023834228516e+00,4.951868057250976562e+00,4.974810123443603516e+00,4.999091148376464844e+00,5.010011196136474609e+00,5.006209850311279297e+00,4.996083259582519531e+00,4.991261482238769531e+00,4.986884593963623047e+00,4.975706100463867188e+00,4.961699962615966797e+00,4.946737289428710938e+00,4.932088851928710938e+00,4.923542976379394531e+00,4.919701576232910156e+00,4.912374496459960938e+00,4.904070377349853516e+00,4.897886276245117188e+00,4.891776084899902344e+00,4.881608963012695312e+00,4.869970321655273438e+00,4.861792087554931641e+00,4.851428985595703125e+00,4.837110996246337891e+00
5.474235057830810547e+00,5.466646671295166016e+00,5.458993911743164062e+00,5.452880382537841797e+00,5.462774276733398438e+00,5.571161270141601562e+00,5.624766826629638672e+00,5.592159271240234375e+00,5.579524993896484375e+00,5.576252460479736328e+00,5.573656082153320312e+00,5.567100048065185547e+00,5.552869319915771484e+00,5.543062686920166016e+00,5.528579235076904297e+00,5.517953395843505859e+00,5.512121200561523438e+00,5.504209041595458984e+00,5.497230052947998047e+00,5.492455482482910156e+00,5.484608650207519531e+00,5.476816177368164062e+00,5.478126049041748047e+00,5.475794792175292969e+00,5.486334800720214844e+00,5.491739273071289062e+00,5.472999095916748047e+00,5.456667900085449219e+00,5.455601215362548828e+00,5.460900783538818359e+00,5.468584537506103516e+00,5.480676651000976562e+00,5.482445716857910156e+00,5.484889030456542969e+00,5.470085620880126953e+00,5.461598396301269531e+00,5.454793930053710938e+00,5.440732955932617188e+00,5.428692817687988281e+00,5.422436714172363281e+00,5.418978691101074219e+00,5.421105384826660156e+00,5.419538497924804688e+00,5.418786525726318359e+00,5.404312133789062500e+00,5.384475231170654297e+00,5.364250659942626953e+00,5.353355884552001953e+00,5.347402572631835938e+00,5.339106559753417969e+00,5.329162597656250000e+00,5.316016674041748047e+00,5.309064388275146484e+00,5.299531936645507812e+00,5.286165237426757812e+00,5.266006469726562500e+00,5.242013454437255859e+00,5.223411083221435547e+00,5.213721275329589844e+00,5.206027030944824219e+00,5.206789493560791016e+00,5.207977294921875000e+00,5.206862926483154297e+00,5.203814029693603516e+00,5.199162483215332031e+00,5.197582244873046875e+00,5.201261520385742188e+00,5.207102775573730469e+00,5.206439971923828125e+00,5.187970638275146484e+00,5.161819458007812500e+00,5.141335964202880859e+00,5.124904155731201172e+00,5.132091045379638672e+00,5.120403289794921875e+00,5.114947319030761719e+00,5.118281841278076172e+00,5.112463951110839844e+00,5.112775325775146484e+00,5.114091396331787109e+00,5.103348255157470703e+00,5.083222866058349609e+00,5.065535068511962891e+00,5.052735805511474609e+00,5.038227558135986328e+00,5.019897460937500000e+00,5.011445522308349609e+00,5.010358810424804688e+00,5.001318454742431641e+00,4.981687068939208984e+00,4.971683502197265625e+00,4.964236259460449219e+00,4.946594238281250000e+00,4.924301624298095703e+00,4.910114765167236328e+00,4.902860164642333984e+00,4.915805816650390625e+00,4.937120437622070312e+00,4.957561016082763672e+00,4.962151527404785156e+00,4.959217071533203125e+00,4.948462009429931641e+00,4.941800117492675781e+00,4.937738418579101562e+00,4.926999568939208984e+00,4.911352634429931641e+00,4.895506381988525391e+00,4.883704662322998047e+00,4.878867626190185547e+00,4.876513481140136719e+00,4.869236946105957031e+00,4.855776309967041016e+00,4.848587512969970703e+00,4.844053745269775391e+00,4.835505485534667969e+00,4.828064441680908203e+00,4.817717075347900391e+00,4.805369853973388672e+00,4.785333633422851562e+00
5.444345474243164062e+00,5.430964469909667969e+00,5.423795700073242188e+00,5.413726806640625000e+00,5.414091110229492188e+00,5.526581287384033203e+00,5.572472095489501953e+00,5.537722110748291016e+00,5.530770778656005859e+00,5.519183158874511719e+00,5.503439903259277344e+00,5.490109443664550781e+00,5.484240055084228516e+00,5.480065822601318359e+00,5.484167098999023438e+00,5.487701416015625000e+00,5.482493877410888672e+00,5.469441413879394531e+00,5.459194183349609375e+00,5.452403545379638672e+00,5.445922374725341797e+00,5.439261913299560547e+00,5.435050487518310547e+00,5.430157661437988281e+00,5.424773693084716797e+00,5.421587467193603516e+00,5.424358367919921875e+00,5.427050113677978516e+00,5.426534652709960938e+00,5.426227569580078125e+00,5.424554347991943359e+00,5.425089836120605469e+00,5.429889678955078125e+00,5.426985263824462891e+00,5.412512779235839844e+00,5.410273551940917969e+00,5.395943641662597656e+00,5.378509521484375000e+00,5.375858306884765625e+00,5.372123241424560547e+00,5.368201732635498047e+00,5.364935874938964844e+00,5.358916759490966797e+00,5.353196620941162109e+00,5.341851234436035156e+00,5.330986499786376953e+00,5.317869186401367188e+00,5.307469367980957031e+00,5.297359466552734375e+00,5.283416271209716797e+00,5.269707202911376953e+00,5.256039619445800781e+00,5.240077972412109375e+00,5.217759609222412109e+00,5.209869861602783203e+00,5.198263168334960938e+00,5.187089443206787109e+00,5.175634860992431641e+00,5.165053844451904297e+00,5.156322479248046875e+00,5.155810356140136719e+00,5.157221794128417969e+00,5.156577110290527344e+00,5.154315948486328125e+00,5.150229454040527344e+00,5.147548675537109375e+00,5.148335456848144531e+00,5.151257514953613281e+00,5.152116775512695312e+00,5.139725208282470703e+00,5.117658138275146484e+00,5.105203151702880859e+00,5.091696262359619141e+00,5.096283435821533203e+00,5.085941791534423828e+00,5.078054428100585938e+00,5.072673320770263672e+00,5.063986301422119141e+00,5.055015087127685547e+00,5.048236846923828125e+00,5.042850971221923828e+00,5.042572498321533203e+00,5.035132884979248047e+00,5.015994071960449219e+00,5.002117156982421875e+00,4.989784717559814453e+00,4.975516319274902344e+00,4.961999893188476562e+00,4.947302818298339844e+00,4.945707321166992188e+00,4.947745800018310547e+00,4.936730861663818359e+00,4.913178920745849609e+00,4.892249107360839844e+00,4.873980045318603516e+00,4.869062900543212891e+00,4.877133846282958984e+00,4.895415782928466797e+00,4.908148765563964844e+00,4.908903121948242188e+00,4.901720046997070312e+00,4.894506454467773438e+00,4.887761116027832031e+00,4.882743358612060547e+00,4.871547222137451172e+00,4.855655670166015625e+00,4.844953536987304688e+00,4.839770317077636719e+00,4.835977077484130859e+00,4.824751377105712891e+00,4.810392379760742188e+00,4.802625179290771484e+00,4.800219535827636719e+00,4.796698093414306641e+00,4.790182590484619141e+00,4.782409191131591797e+00,4.771887779235839844e+00,4.757303237915039062e+00,4.735476016998291016e+00
5.414905548095703125e+00,5.404133796691894531e+00,5.393881797790527344e+00,5.377068996429443359e+00,5.370986461639404297e+00,5.473030567169189453e+00,5.518687725067138672e+00,5.480792045593261719e+00,5.473536491394042969e+00,5.458725452423095703e+00,5.455069541931152344e+00,5.451961040496826172e+00,5.449580192565917969e+00,5.444257259368896484e+00,5.449686050415039062e+00,5.447459220886230469e+00,5.434472084045410156e+00,5.425432205200195312e+00,5.422481536865234375e+00,5.414673328399658203e+00,5.406825542449951172e+00,5.399988174438476562e+00,5.395623207092285156e+00,5.387102127075195312e+00,5.372519493103027344e+00,5.370919227600097656e+00,5.378609180450439453e+00,5.379912853240966797e+00,5.377213001251220703e+00,5.377567291259765625e+00,5.371578216552734375e+00,5.362036705017089844e+00,5.341894149780273438e+00,5.316441535949707031e+00,5.311967849731445312e+00,5.322526931762695312e+00,5.328790664672851562e+00,5.333837985992431641e+00,5.334024429321289062e+00,5.329561710357666016e+00,5.322190761566162109e+00,5.312839508056640625e+00,5.302756786346435547e+00,5.292924880981445312e+00,5.288108348846435547e+00,5.284944534301757812e+00,5.279392719268798828e+00,5.268330097198486328e+00,5.253248691558837891e+00,5.237329483032226562e+00,5.217594623565673828e+00,5.194245815277099609e+00,5.179566860198974609e+00,5.159722805023193359e+00,5.152917861938476562e+00,5.143819808959960938e+00,5.138278007507324219e+00,5.135033130645751953e+00,5.122577667236328125e+00,5.111526489257812500e+00,5.109148502349853516e+00,5.107625961303710938e+00,5.104234695434570312e+00,5.102102756500244141e+00,5.099849224090576172e+00,5.096507549285888672e+00,5.094988822937011719e+00,5.096570968627929688e+00,5.097274780273437500e+00,5.090946674346923828e+00,5.071343421936035156e+00,5.060416221618652344e+00,5.049803256988525391e+00,5.051501274108886719e+00,5.042964935302734375e+00,5.035732269287109375e+00,5.030254364013671875e+00,5.020972728729248047e+00,5.013804912567138672e+00,5.001329898834228516e+00,4.987293243408203125e+00,4.977909088134765625e+00,4.972483634948730469e+00,4.966048717498779297e+00,4.958201408386230469e+00,4.947620868682861328e+00,4.937635421752929688e+00,4.924456596374511719e+00,4.915360927581787109e+00,4.909880161285400391e+00,4.903124809265136719e+00,4.891953945159912109e+00,4.873648166656494141e+00,4.850912570953369141e+00,4.834694862365722656e+00,4.831629753112792969e+00,4.841035366058349609e+00,4.849620342254638672e+00,4.856809139251708984e+00,4.854612827301025391e+00,4.841760635375976562e+00,4.835574150085449219e+00,4.827058792114257812e+00,4.820812225341796875e+00,4.814705848693847656e+00,4.805017471313476562e+00,4.799925327301025391e+00,4.790999889373779297e+00,4.773241043090820312e+00,4.763105869293212891e+00,4.760034561157226562e+00,4.758102416992187500e+00,4.752544403076171875e+00,4.746700286865234375e+00,4.739589214324951172e+00,4.731763839721679688e+00,4.720656871795654297e+00,4.706749916076660156e+00,4.687138557434082031e+00
5.388079643249511719e+00,5.372760772705078125e+00,5.357589721679687500e+00,5.343886852264404297e+00,5.338350772857666016e+00,5.408994197845458984e+00,5.464447498321533203e+00,5.435935497283935547e+00,5.434596538543701172e+00,5.431450843811035156e+00,5.428118705749511719e+00,5.426779747009277344e+00,5.417051792144775391e+00,5.404638767242431641e+00,5.394093036651611328e+00,5.377694606781005859e+00,5.374516010284423828e+00,5.385828018188476562e+00,5.390081405639648438e+00,5.385253429412841797e+00,5.377341270446777344e+00,5.375743865966796875e+00,5.370603084564208984e+00,5.358308315277099609e+00,5.353713512420654297e+00,5.344056606292724609e+00,5.337573051452636719e+00,5.330058097839355469e+00,5.326835155487060547e+00,5.321716308593750000e+00,5.325917243957519531e+00,5.321817398071289062e+00,5.302642822265625000e+00,5.289083957672119141e+00,5.285762310028076172e+00,5.288410663604736328e+00,5.298060894012451172e+00,5.305703639984130859e+00,5.305466175079345703e+00,5.304436683654785156e+00,5.297224521636962891e+00,5.290783882141113281e+00,5.281034946441650391e+00,5.267130851745605469e+00,5.247067451477050781e+00,5.229780197143554688e+00,5.218949794769287109e+00,5.207504749298095703e+00,5.197186946868896484e+00,5.184968948364257812e+00,5.167376518249511719e+00,5.146877288818359375e+00,5.135142326354980469e+00,5.118617057800292969e+00,5.108136177062988281e+00,5.103224277496337891e+00,5.096376895904541016e+00,5.089965343475341797e+00,5.078449249267578125e+00,5.066986083984375000e+00,5.065556049346923828e+00,5.063076019287109375e+00,5.060139656066894531e+00,5.057139396667480469e+00,5.052666187286376953e+00,5.047418594360351562e+00,5.044310092926025391e+00,5.043929576873779297e+00,5.043261051177978516e+00,5.041283607482910156e+00,5.025319099426269531e+00,5.012563705444335938e+00,5.002561569213867188e+00,5.000488758087158203e+00,4.998963832855224609e+00,4.992341518402099609e+00,4.984265327453613281e+00,4.977701187133789062e+00,4.969506263732910156e+00,4.957754135131835938e+00,4.943521499633789062e+00,4.930537223815917969e+00,4.912512302398681641e+00,4.899511337280273438e+00,4.891448497772216797e+00,4.887928009033203125e+00,4.886758327484130859e+00,4.879897594451904297e+00,4.874120712280273438e+00,4.862433910369873047e+00,4.850481033325195312e+00,4.837959766387939453e+00,4.821188926696777344e+00,4.805391788482666016e+00,4.792890548706054688e+00,4.788807868957519531e+00,4.789772510528564453e+00,4.795452117919921875e+00,4.801836013793945312e+00,4.798290252685546875e+00,4.790188789367675781e+00,4.779696464538574219e+00,4.772001266479492188e+00,4.770134449005126953e+00,4.768918514251708984e+00,4.759772300720214844e+00,4.743030548095703125e+00,4.727789878845214844e+00,4.720686435699462891e+00,4.716969490051269531e+00,4.711811065673828125e+00,4.705822944641113281e+00,4.700101852416992188e+00,4.695938110351562500e+00,4.689494132995605469e+00,4.683027744293212891e+00,4.671060562133789062e+00,4.659574985504150391e+00,4.642783164978027344e+00
5.354404926300048828e+00,5.330074310302734375e+00,5.316739559173583984e+00,5.310208797454833984e+00,5.308965682983398438e+00,5.357798576354980469e+00,5.416481971740722656e+00,5.383590221405029297e+00,5.390161514282226562e+00,5.391988754272460938e+00,5.382865428924560547e+00,5.383063793182373047e+00,5.375161647796630859e+00,5.358469963073730469e+00,5.343584537506103516e+00,5.340351104736328125e+00,5.344594001770019531e+00,5.349246978759765625e+00,5.354520320892333984e+00,5.353397846221923828e+00,5.348868846893310547e+00,5.342351913452148438e+00,5.327714443206787109e+00,5.323374748229980469e+00,5.323414802551269531e+00,5.321565151214599609e+00,5.320016384124755859e+00,5.318917751312255859e+00,5.312049388885498047e+00,5.305078029632568359e+00,5.301544666290283203e+00,5.299070358276367188e+00,5.292236328125000000e+00,5.288059711456298828e+00,5.273522377014160156e+00,5.253201961517333984e+00,5.238709926605224609e+00,5.231758594512939453e+00,5.232660293579101562e+00,5.240362167358398438e+00,5.245405197143554688e+00,5.247528076171875000e+00,5.241232872009277344e+00,5.231311798095703125e+00,5.211340904235839844e+00,5.192496776580810547e+00,5.176816463470458984e+00,5.162741184234619141e+00,5.152971744537353516e+00,5.138913154602050781e+00,5.121273994445800781e+00,5.101290702819824219e+00,5.087919235229492188e+00,5.079773426055908203e+00,5.072355270385742188e+00,5.067334651947021484e+00,5.057685375213623047e+00,5.049353122711181641e+00,5.037396430969238281e+00,5.025315761566162109e+00,5.022586822509765625e+00,5.021207332611083984e+00,5.018328666687011719e+00,5.013146877288818359e+00,5.007077217102050781e+00,5.000142097473144531e+00,4.994632720947265625e+00,4.993219375610351562e+00,4.991038799285888672e+00,4.988905429840087891e+00,4.976213932037353516e+00,4.960577011108398438e+00,4.947490215301513672e+00,4.942929744720458984e+00,4.940266132354736328e+00,4.934684276580810547e+00,4.925332069396972656e+00,4.921553134918212891e+00,4.914823532104492188e+00,4.903886318206787109e+00,4.893609523773193359e+00,4.881981849670410156e+00,4.866536140441894531e+00,4.852739810943603516e+00,4.841552734375000000e+00,4.831576347351074219e+00,4.821878433227539062e+00,4.816059112548828125e+00,4.817838191986083984e+00,4.815246105194091797e+00,4.806437492370605469e+00,4.793631553649902344e+00,4.772373676300048828e+00,4.751989841461181641e+00,4.742058277130126953e+00,4.739078998565673828e+00,4.735788345336914062e+00,4.737413883209228516e+00,4.745490074157714844e+00,4.737153530120849609e+00,4.733408927917480469e+00,4.725864410400390625e+00,4.722937107086181641e+00,4.720871448516845703e+00,4.710289955139160156e+00,4.694395542144775391e+00,4.684596061706542969e+00,4.680751800537109375e+00,4.675590991973876953e+00,4.667811393737792969e+00,4.660369873046875000e+00,4.654736518859863281e+00,4.647550106048583984e+00,4.644317626953125000e+00,4.640348434448242188e+00,4.636847496032714844e+00,4.628047466278076172e+00,4.615461826324462891e+00,4.601521492004394531e+00
5.320154190063476562e+00,5.299005031585693359e+00,5.286096096038818359e+00,5.281657695770263672e+00,5.289556980133056641e+00,5.320955276489257812e+00,5.366541862487792969e+00,5.346318244934082031e+00,5.342047691345214844e+00,5.335466384887695312e+00,5.328515052795410156e+00,5.331940174102783203e+00,5.331738471984863281e+00,5.327616691589355469e+00,5.326895236968994141e+00,5.325518131256103516e+00,5.315320491790771484e+00,5.309012889862060547e+00,5.307957649230957031e+00,5.303645133972167969e+00,5.298119068145751953e+00,5.295460224151611328e+00,5.298594474792480469e+00,5.300909042358398438e+00,5.303126811981201172e+00,5.300850868225097656e+00,5.294681549072265625e+00,5.293755054473876953e+00,5.290466785430908203e+00,5.280131816864013672e+00,5.267014026641845703e+00,5.258984565734863281e+00,5.250124454498291016e+00,5.241784572601318359e+00,5.225762844085693359e+00,5.204537391662597656e+00,5.190798759460449219e+00,5.178672313690185547e+00,5.176475048065185547e+00,5.186011791229248047e+00,5.193366050720214844e+00,5.195713043212890625e+00,5.192668437957763672e+00,5.186262607574462891e+00,5.173583507537841797e+00,5.159631729125976562e+00,5.144442081451416016e+00,5.127646446228027344e+00,5.108565807342529297e+00,5.087133407592773438e+00,5.072329521179199219e+00,5.051712512969970703e+00,5.041521549224853516e+00,5.036974430084228516e+00,5.030571937561035156e+00,5.020576000213623047e+00,5.007951259613037109e+00,4.995831966400146484e+00,4.987949848175048828e+00,4.984198093414306641e+00,4.984814643859863281e+00,4.985092639923095703e+00,4.981101036071777344e+00,4.974987030029296875e+00,4.966337203979492188e+00,4.956628322601318359e+00,4.949953079223632812e+00,4.947090625762939453e+00,4.939953804016113281e+00,4.932717323303222656e+00,4.920763969421386719e+00,4.906524658203125000e+00,4.897633075714111328e+00,4.887815475463867188e+00,4.881022453308105469e+00,4.876860141754150391e+00,4.871415615081787109e+00,4.869602203369140625e+00,4.865273475646972656e+00,4.855688571929931641e+00,4.846079826354980469e+00,4.835198402404785156e+00,4.823483943939208984e+00,4.813385486602783203e+00,4.802406787872314453e+00,4.792183876037597656e+00,4.778525352478027344e+00,4.767069816589355469e+00,4.759486198425292969e+00,4.753627300262451172e+00,4.752070426940917969e+00,4.746603012084960938e+00,4.731173515319824219e+00,4.712563037872314453e+00,4.699251651763916016e+00,4.695600032806396484e+00,4.690480232238769531e+00,4.687801361083984375e+00,4.690755844116210938e+00,4.684099197387695312e+00,4.681196212768554688e+00,4.679934501647949219e+00,4.672031879425048828e+00,4.660349845886230469e+00,4.649668693542480469e+00,4.644923210144042969e+00,4.641769886016845703e+00,4.635484218597412109e+00,4.627134799957275391e+00,4.619853019714355469e+00,4.614833354949951172e+00,4.609238147735595703e+00,4.602163314819335938e+00,4.597983837127685547e+00,4.594077110290527344e+00,4.591600894927978516e+00,4.583487510681152344e+00,4.571550369262695312e+00,4.556934833526611328e+00
5.294935703277587891e+00,5.279326915740966797e+00,5.268541336059570312e+00,5.260000705718994141e+00,5.266001701354980469e+00,5.291767120361328125e+00,5.332218647003173828e+00,5.329711914062500000e+00,5.309662342071533203e+00,5.306217193603515625e+00,5.304959297180175781e+00,5.305219650268554688e+00,5.308065891265869141e+00,5.306620597839355469e+00,5.305346488952636719e+00,5.297454357147216797e+00,5.290427684783935547e+00,5.282096385955810547e+00,5.275741577148437500e+00,5.268796443939208984e+00,5.263584136962890625e+00,5.267131805419921875e+00,5.271857261657714844e+00,5.274209022521972656e+00,5.267851352691650391e+00,5.260995388031005859e+00,5.250422477722167969e+00,5.244846343994140625e+00,5.237457752227783203e+00,5.227863788604736328e+00,5.220406532287597656e+00,5.215351581573486328e+00,5.196763992309570312e+00,5.185895919799804688e+00,5.179935932159423828e+00,5.175681591033935547e+00,5.174599170684814453e+00,5.169978141784667969e+00,5.164976596832275391e+00,5.165601253509521484e+00,5.173025131225585938e+00,5.172214984893798828e+00,5.161307334899902344e+00,5.149808406829833984e+00,5.133677482604980469e+00,5.117388725280761719e+00,5.100502967834472656e+00,5.082086563110351562e+00,5.058319568634033203e+00,5.038246631622314453e+00,5.023257255554199219e+00,5.009909152984619141e+00,4.999297618865966797e+00,4.993579864501953125e+00,4.985532760620117188e+00,4.974358558654785156e+00,4.963054656982421875e+00,4.953419685363769531e+00,4.946837902069091797e+00,4.942914962768554688e+00,4.942418098449707031e+00,4.940568447113037109e+00,4.937278270721435547e+00,4.932930469512939453e+00,4.926264762878417969e+00,4.916034698486328125e+00,4.903942108154296875e+00,4.896586418151855469e+00,4.888569831848144531e+00,4.878577232360839844e+00,4.863519191741943359e+00,4.853969573974609375e+00,4.851000308990478516e+00,4.842428684234619141e+00,4.833758354187011719e+00,4.824777603149414062e+00,4.819527149200439453e+00,4.817794322967529297e+00,4.815212249755859375e+00,4.808948993682861328e+00,4.799176692962646484e+00,4.789793014526367188e+00,4.780079364776611328e+00,4.768390655517578125e+00,4.757410049438476562e+00,4.747846126556396484e+00,4.736990451812744141e+00,4.726196765899658203e+00,4.715584754943847656e+00,4.705289363861083984e+00,4.693639755249023438e+00,4.680809497833251953e+00,4.670075893402099609e+00,4.663787841796875000e+00,4.657208919525146484e+00,4.651368618011474609e+00,4.644267082214355469e+00,4.639620780944824219e+00,4.638560295104980469e+00,4.632601737976074219e+00,4.630116462707519531e+00,4.617989063262939453e+00,4.610757350921630859e+00,4.608162403106689453e+00,4.605564117431640625e+00,4.604498863220214844e+00,4.596980094909667969e+00,4.587385177612304688e+00,4.580016613006591797e+00,4.572975635528564453e+00,4.568433284759521484e+00,4.564720630645751953e+00,4.560171604156494141e+00,4.557125091552734375e+00,4.553150653839111328e+00,4.550020694732666016e+00,4.540970325469970703e+00,4.531807422637939453e+00,4.519514083862304688e+00
5.270180225372314453e+00,5.256034374237060547e+00,5.239762783050537109e+00,5.226548671722412109e+00,5.235082626342773438e+00,5.254058837890625000e+00,5.271978378295898438e+00,5.286920070648193359e+00,5.280016422271728516e+00,5.279074192047119141e+00,5.275525569915771484e+00,5.277790546417236328e+00,5.280770301818847656e+00,5.281338691711425781e+00,5.280018329620361328e+00,5.272593975067138672e+00,5.264533519744873047e+00,5.254205226898193359e+00,5.248417377471923828e+00,5.241678237915039062e+00,5.237881660461425781e+00,5.237316131591796875e+00,5.233598232269287109e+00,5.222216129302978516e+00,5.205701828002929688e+00,5.199092864990234375e+00,5.190502166748046875e+00,5.173671245574951172e+00,5.174803256988525391e+00,5.179887771606445312e+00,5.173204421997070312e+00,5.162946701049804688e+00,5.155480861663818359e+00,5.151208400726318359e+00,5.143327713012695312e+00,5.132504940032958984e+00,5.124890327453613281e+00,5.124805450439453125e+00,5.122877120971679688e+00,5.118990898132324219e+00,5.120829582214355469e+00,5.119799613952636719e+00,5.119427680969238281e+00,5.112437725067138672e+00,5.095772266387939453e+00,5.071006298065185547e+00,5.047686576843261719e+00,5.031477451324462891e+00,5.017418861389160156e+00,5.000350952148437500e+00,4.980074882507324219e+00,4.962086677551269531e+00,4.948418617248535156e+00,4.938272476196289062e+00,4.934226036071777344e+00,4.932394504547119141e+00,4.928183078765869141e+00,4.918776988983154297e+00,4.906332015991210938e+00,4.898032188415527344e+00,4.893092155456542969e+00,4.887724399566650391e+00,4.881192207336425781e+00,4.875466346740722656e+00,4.870732307434082031e+00,4.864350795745849609e+00,4.854368209838867188e+00,4.844296932220458984e+00,4.833045482635498047e+00,4.818902492523193359e+00,4.801389217376708984e+00,4.786341667175292969e+00,4.785511016845703125e+00,4.781867504119873047e+00,4.771222114562988281e+00,4.759065151214599609e+00,4.753873348236083984e+00,4.753576278686523438e+00,4.755678176879882812e+00,4.753766536712646484e+00,4.747700691223144531e+00,4.738569736480712891e+00,4.729383945465087891e+00,4.719367504119873047e+00,4.710706710815429688e+00,4.701248168945312500e+00,4.689758300781250000e+00,4.679963588714599609e+00,4.670179843902587891e+00,4.662292003631591797e+00,4.649335861206054688e+00,4.635273933410644531e+00,4.618856430053710938e+00,4.603365421295166016e+00,4.595113754272460938e+00,4.592278480529785156e+00,4.592395782470703125e+00,4.586535453796386719e+00,4.578955650329589844e+00,4.564509868621826172e+00,4.557843685150146484e+00,4.559082031250000000e+00,4.559775829315185547e+00,4.560615062713623047e+00,4.556360244750976562e+00,4.551754951477050781e+00,4.547262668609619141e+00,4.540943622589111328e+00,4.532509326934814453e+00,4.526085376739501953e+00,4.523862361907958984e+00,4.521783828735351562e+00,4.517925262451171875e+00,4.515289783477783203e+00,4.510151863098144531e+00,4.509639263153076172e+00,4.504296779632568359e+00,4.494572639465332031e+00,4.482655525207519531e+00
5.223472118377685547e+00,5.202051162719726562e+00,5.186221122741699219e+00,5.190425872802734375e+00,5.195902824401855469e+00,5.206336021423339844e+00,5.227593898773193359e+00,5.251303195953369141e+00,5.244788646697998047e+00,5.242338180541992188e+00,5.241216659545898438e+00,5.243207931518554688e+00,5.239732265472412109e+00,5.234994411468505859e+00,5.231905460357666016e+00,5.227041244506835938e+00,5.222190380096435547e+00,5.216280460357666016e+00,5.203816413879394531e+00,5.195528507232666016e+00,5.188639640808105469e+00,5.180406093597412109e+00,5.175824165344238281e+00,5.166002750396728516e+00,5.167321205139160156e+00,5.162309169769287109e+00,5.147130012512207031e+00,5.136025905609130859e+00,5.141049861907958984e+00,5.137557506561279297e+00,5.133037567138671875e+00,5.128783702850341797e+00,5.124553680419921875e+00,5.115073680877685547e+00,5.101607799530029297e+00,5.086442470550537109e+00,5.080590248107910156e+00,5.081124782562255859e+00,5.081631660461425781e+00,5.075903892517089844e+00,5.065318107604980469e+00,5.066864013671875000e+00,5.065359115600585938e+00,5.054506778717041016e+00,5.033191680908203125e+00,5.013820171356201172e+00,5.001553535461425781e+00,4.984910964965820312e+00,4.969631195068359375e+00,4.952554702758789062e+00,4.934624195098876953e+00,4.921102523803710938e+00,4.907199859619140625e+00,4.893182277679443359e+00,4.881999492645263672e+00,4.873049259185791016e+00,4.866322517395019531e+00,4.854175567626953125e+00,4.844144344329833984e+00,4.839756011962890625e+00,4.835462570190429688e+00,4.831121444702148438e+00,4.824999809265136719e+00,4.817542076110839844e+00,4.811575889587402344e+00,4.807447910308837891e+00,4.799795150756835938e+00,4.786782264709472656e+00,4.774666309356689453e+00,4.760291576385498047e+00,4.743628025054931641e+00,4.730008125305175781e+00,4.714080333709716797e+00,4.702687263488769531e+00,4.695550918579101562e+00,4.694272041320800781e+00,4.693330287933349609e+00,4.690400600433349609e+00,4.690130710601806641e+00,4.690756320953369141e+00,4.689590930938720703e+00,4.684655189514160156e+00,4.677394866943359375e+00,4.666593074798583984e+00,4.656812667846679688e+00,4.649884700775146484e+00,4.639362335205078125e+00,4.629584312438964844e+00,4.620106220245361328e+00,4.612060546875000000e+00,4.601970195770263672e+00,4.591973304748535156e+00,4.577768325805664062e+00,4.557955265045166016e+00,4.541702747344970703e+00,4.529335498809814453e+00,4.522863864898681641e+00,4.520603179931640625e+00,4.522785186767578125e+00,4.518159389495849609e+00,4.514145374298095703e+00,4.515765190124511719e+00,4.513463020324707031e+00,4.508047103881835938e+00,4.503214836120605469e+00,4.499571323394775391e+00,4.495883941650390625e+00,4.492536067962646484e+00,4.485574722290039062e+00,4.480290412902832031e+00,4.477619647979736328e+00,4.476357460021972656e+00,4.476593017578125000e+00,4.473811626434326172e+00,4.468596935272216797e+00,4.468988418579101562e+00,4.464671134948730469e+00,4.455965995788574219e+00,4.446683406829833984e+00
5.183831214904785156e+00,5.165900230407714844e+00,5.160644054412841797e+00,5.161487579345703125e+00,5.163476467132568359e+00,5.173790931701660156e+00,5.195517063140869141e+00,5.213261604309082031e+00,5.205707550048828125e+00,5.197443962097167969e+00,5.196063995361328125e+00,5.197868824005126953e+00,5.190963745117187500e+00,5.185783863067626953e+00,5.185553550720214844e+00,5.180708408355712891e+00,5.175794601440429688e+00,5.163951396942138672e+00,5.151651382446289062e+00,5.136042594909667969e+00,5.113796234130859375e+00,5.097322940826416016e+00,5.099472045898437500e+00,5.118752956390380859e+00,5.125144004821777344e+00,5.120503425598144531e+00,5.106241226196289062e+00,5.091761589050292969e+00,5.080465793609619141e+00,5.078691005706787109e+00,5.083097457885742188e+00,5.081558227539062500e+00,5.063598155975341797e+00,5.048393726348876953e+00,5.040414333343505859e+00,5.038452625274658203e+00,5.040588855743408203e+00,5.034880161285400391e+00,5.027792453765869141e+00,5.019335746765136719e+00,5.013619899749755859e+00,5.005904674530029297e+00,4.993325233459472656e+00,4.982708930969238281e+00,4.970609188079833984e+00,4.966243267059326172e+00,4.956372737884521484e+00,4.942998886108398438e+00,4.927432060241699219e+00,4.916116237640380859e+00,4.903337955474853516e+00,4.892098903656005859e+00,4.878019809722900391e+00,4.862067222595214844e+00,4.848432064056396484e+00,4.833522796630859375e+00,4.820966243743896484e+00,4.808079242706298828e+00,4.797073841094970703e+00,4.789569854736328125e+00,4.783421516418457031e+00,4.779801845550537109e+00,4.774650096893310547e+00,4.769077301025390625e+00,4.760880947113037109e+00,4.750545501708984375e+00,4.738199234008789062e+00,4.725551128387451172e+00,4.717853546142578125e+00,4.706035614013671875e+00,4.690747737884521484e+00,4.677509307861328125e+00,4.666606903076171875e+00,4.658996582031250000e+00,4.652494907379150391e+00,4.647386074066162109e+00,4.642237663269042969e+00,4.635761737823486328e+00,4.632016658782958984e+00,4.631146907806396484e+00,4.629523754119873047e+00,4.625621795654296875e+00,4.619609832763671875e+00,4.612298488616943359e+00,4.606704235076904297e+00,4.600069522857666016e+00,4.590991020202636719e+00,4.582374095916748047e+00,4.573273181915283203e+00,4.564283847808837891e+00,4.554907321929931641e+00,4.546180248260498047e+00,4.533682823181152344e+00,4.518722057342529297e+00,4.503570556640625000e+00,4.489684581756591797e+00,4.480666637420654297e+00,4.476900100708007812e+00,4.478652954101562500e+00,4.477771759033203125e+00,4.476917743682861328e+00,4.472263813018798828e+00,4.467376708984375000e+00,4.464274406433105469e+00,4.456836700439453125e+00,4.450929164886474609e+00,4.448434352874755859e+00,4.447006702423095703e+00,4.442355155944824219e+00,4.438116073608398438e+00,4.434762477874755859e+00,4.433290004730224609e+00,4.435554981231689453e+00,4.435431480407714844e+00,4.433004379272460938e+00,4.434197902679443359e+00,4.428087234497070312e+00,4.420344829559326172e+00,4.412602424621582031e+00
5.159442901611328125e+00,5.147631168365478516e+00,5.141210556030273438e+00,5.143664360046386719e+00,5.145077705383300781e+00,5.155336380004882812e+00,5.174430370330810547e+00,5.178613662719726562e+00,5.170590400695800781e+00,5.164003849029541016e+00,5.160602569580078125e+00,5.152685165405273438e+00,5.146553993225097656e+00,5.146990776062011719e+00,5.144514560699462891e+00,5.138623237609863281e+00,5.125346660614013672e+00,5.117078304290771484e+00,5.104854583740234375e+00,5.089733123779296875e+00,5.078933238983154297e+00,5.076694965362548828e+00,5.075338363647460938e+00,5.065521717071533203e+00,5.066213607788085938e+00,5.069733142852783203e+00,5.057146549224853516e+00,5.043882369995117188e+00,5.033547878265380859e+00,5.030164718627929688e+00,5.025174617767333984e+00,5.020547866821289062e+00,5.011604785919189453e+00,5.003888130187988281e+00,4.998944282531738281e+00,4.995549201965332031e+00,4.986447334289550781e+00,4.979286670684814453e+00,4.969375610351562500e+00,4.966609477996826172e+00,4.962054252624511719e+00,4.956442832946777344e+00,4.949943065643310547e+00,4.945286273956298828e+00,4.937181472778320312e+00,4.924355030059814453e+00,4.912170410156250000e+00,4.898643970489501953e+00,4.888785362243652344e+00,4.876203536987304688e+00,4.864572048187255859e+00,4.851584911346435547e+00,4.836724281311035156e+00,4.822432994842529297e+00,4.809988498687744141e+00,4.797006607055664062e+00,4.785226345062255859e+00,4.772027015686035156e+00,4.758955001831054688e+00,4.749257087707519531e+00,4.740825653076171875e+00,4.733223438262939453e+00,4.725031852722167969e+00,4.716633319854736328e+00,4.708547592163085938e+00,4.697555541992187500e+00,4.687053680419921875e+00,4.674697399139404297e+00,4.664485454559326172e+00,4.652899265289306641e+00,4.642321586608886719e+00,4.632302284240722656e+00,4.622446060180664062e+00,4.615678310394287109e+00,4.609544754028320312e+00,4.602813720703125000e+00,4.597032070159912109e+00,4.590564727783203125e+00,4.585195541381835938e+00,4.580594539642333984e+00,4.575372695922851562e+00,4.566669464111328125e+00,4.560297012329101562e+00,4.556327342987060547e+00,4.553896903991699219e+00,4.552213191986083984e+00,4.547441482543945312e+00,4.541461944580078125e+00,4.532422065734863281e+00,4.522716045379638672e+00,4.512841701507568359e+00,4.504514217376708984e+00,4.494565963745117188e+00,4.481137752532958984e+00,4.467125892639160156e+00,4.452764511108398438e+00,4.441755294799804688e+00,4.434730052947998047e+00,4.433460235595703125e+00,4.436665058135986328e+00,4.437009334564208984e+00,4.434650421142578125e+00,4.429300308227539062e+00,4.424304008483886719e+00,4.415432929992675781e+00,4.408587455749511719e+00,4.404887199401855469e+00,4.401093006134033203e+00,4.397413730621337891e+00,4.395015239715576172e+00,4.393263339996337891e+00,4.391984939575195312e+00,4.393997669219970703e+00,4.396298408508300781e+00,4.395215988159179688e+00,4.395238876342773438e+00,4.391084671020507812e+00,4.383213043212890625e+00,4.374851226806640625e+00
5.130052566528320312e+00,5.124618053436279297e+00,5.127043247222900391e+00,5.128447055816650391e+00,5.134085655212402344e+00,5.140197277069091797e+00,5.147180557250976562e+00,5.151962280273437500e+00,5.147444248199462891e+00,5.138277530670166016e+00,5.133660793304443359e+00,5.116829872131347656e+00,5.109318733215332031e+00,5.096982002258300781e+00,5.079220771789550781e+00,5.077152252197265625e+00,5.065157413482666016e+00,5.063963413238525391e+00,5.066558361053466797e+00,5.055581092834472656e+00,5.053717136383056641e+00,5.054130077362060547e+00,5.033949375152587891e+00,5.019027709960937500e+00,5.008740901947021484e+00,5.001410484313964844e+00,5.003958702087402344e+00,5.004089832305908203e+00,5.005796909332275391e+00,5.003513813018798828e+00,5.000883102416992188e+00,4.995563983917236328e+00,4.991495132446289062e+00,4.983432769775390625e+00,4.972757339477539062e+00,4.959202289581298828e+00,4.949976921081542969e+00,4.941510200500488281e+00,4.936518669128417969e+00,4.931950569152832031e+00,4.926262378692626953e+00,4.922811985015869141e+00,4.916771888732910156e+00,4.911372661590576172e+00,4.902497768402099609e+00,4.886668682098388672e+00,4.870559215545654297e+00,4.857758045196533203e+00,4.848450183868408203e+00,4.837594032287597656e+00,4.827778816223144531e+00,4.816412925720214844e+00,4.802969932556152344e+00,4.787912368774414062e+00,4.774200439453125000e+00,4.761052131652832031e+00,4.748520374298095703e+00,4.735885143280029297e+00,4.724209785461425781e+00,4.713004589080810547e+00,4.701178550720214844e+00,4.690396308898925781e+00,4.677002429962158203e+00,4.665882110595703125e+00,4.657502651214599609e+00,4.650867462158203125e+00,4.642906665802001953e+00,4.631780624389648438e+00,4.617727756500244141e+00,4.605348587036132812e+00,4.596330165863037109e+00,4.586436748504638672e+00,4.575297832489013672e+00,4.569377422332763672e+00,4.566035270690917969e+00,4.561937808990478516e+00,4.556701183319091797e+00,4.550503730773925781e+00,4.545091152191162109e+00,4.539868831634521484e+00,4.534414768218994141e+00,4.528239250183105469e+00,4.521120548248291016e+00,4.513059139251708984e+00,4.508046150207519531e+00,4.505434989929199219e+00,4.501920700073242188e+00,4.498428344726562500e+00,4.492973804473876953e+00,4.484893321990966797e+00,4.474925518035888672e+00,4.466297626495361328e+00,4.456840991973876953e+00,4.445470809936523438e+00,4.435337543487548828e+00,4.421170711517333984e+00,4.410119056701660156e+00,4.402555465698242188e+00,4.397675037384033203e+00,4.395258903503417969e+00,4.396872520446777344e+00,4.396278858184814453e+00,4.387697696685791016e+00,4.382224082946777344e+00,4.375304698944091797e+00,4.368968963623046875e+00,4.365392684936523438e+00,4.360803604125976562e+00,4.357966899871826172e+00,4.357424736022949219e+00,4.356976985931396484e+00,4.357029914855957031e+00,4.358574390411376953e+00,4.360869884490966797e+00,4.360963821411132812e+00,4.361088752746582031e+00,4.357507705688476562e+00,4.350361824035644531e+00,4.345425605773925781e+00
5.103838443756103516e+00,5.105959892272949219e+00,5.115833282470703125e+00,5.121269702911376953e+00,5.121562480926513672e+00,5.124579429626464844e+00,5.125333309173583984e+00,5.128145694732666016e+00,5.118220329284667969e+00,5.108026027679443359e+00,5.083912372589111328e+00,5.062067985534667969e+00,5.060228347778320312e+00,5.036367416381835938e+00,5.034266471862792969e+00,5.040727138519287109e+00,5.041032314300537109e+00,5.036970138549804688e+00,5.034653186798095703e+00,5.012405872344970703e+00,4.995693206787109375e+00,4.993561267852783203e+00,4.988349437713623047e+00,4.987463474273681641e+00,4.982259750366210938e+00,4.981582164764404297e+00,4.980684757232666016e+00,4.980120182037353516e+00,4.981477260589599609e+00,4.978847503662109375e+00,4.974310874938964844e+00,4.966699600219726562e+00,4.957953929901123047e+00,4.949800014495849609e+00,4.937227249145507812e+00,4.925209999084472656e+00,4.918942928314208984e+00,4.914695262908935547e+00,4.911817550659179688e+00,4.904492855072021484e+00,4.895398616790771484e+00,4.880918502807617188e+00,4.870729446411132812e+00,4.863712787628173828e+00,4.854374885559082031e+00,4.845849037170410156e+00,4.835660457611083984e+00,4.825430393218994141e+00,4.814779758453369141e+00,4.803602695465087891e+00,4.792323589324951172e+00,4.781191349029541016e+00,4.769788265228271484e+00,4.755468845367431641e+00,4.741783618927001953e+00,4.729362964630126953e+00,4.717014789581298828e+00,4.703731060028076172e+00,4.691334247589111328e+00,4.677604198455810547e+00,4.664062976837158203e+00,4.651811122894287109e+00,4.637365341186523438e+00,4.624975681304931641e+00,4.614253520965576172e+00,4.602739810943603516e+00,4.590652942657470703e+00,4.578414440155029297e+00,4.567186355590820312e+00,4.554048061370849609e+00,4.544700145721435547e+00,4.537637710571289062e+00,4.530388355255126953e+00,4.524945735931396484e+00,4.522894382476806641e+00,4.519518852233886719e+00,4.514637470245361328e+00,4.509515762329101562e+00,4.504228591918945312e+00,4.499197006225585938e+00,4.494794845581054688e+00,4.489913940429687500e+00,4.483056068420410156e+00,4.475302696228027344e+00,4.469308376312255859e+00,4.464126586914062500e+00,4.460611343383789062e+00,4.457334041595458984e+00,4.451413631439208984e+00,4.443920135498046875e+00,4.437459945678710938e+00,4.431904792785644531e+00,4.423826217651367188e+00,4.413401603698730469e+00,4.402676582336425781e+00,4.390727519989013672e+00,4.379123687744140625e+00,4.371100425720214844e+00,4.364275932312011719e+00,4.356459140777587891e+00,4.357091903686523438e+00,4.356284618377685547e+00,4.345884799957275391e+00,4.339120864868164062e+00,4.332811355590820312e+00,4.326403617858886719e+00,4.325477123260498047e+00,4.321732997894287109e+00,4.319955348968505859e+00,4.320601940155029297e+00,4.321168899536132812e+00,4.323503494262695312e+00,4.325747489929199219e+00,4.328094005584716797e+00,4.328502655029296875e+00,4.328850269317626953e+00,4.325392246246337891e+00,4.319683074951171875e+00,4.314383029937744141e+00
5.073658466339111328e+00,5.091147422790527344e+00,5.103001594543457031e+00,5.108904838562011719e+00,5.107803821563720703e+00,5.108067035675048828e+00,5.110536575317382812e+00,5.095016479492187500e+00,5.078650474548339844e+00,5.049920082092285156e+00,5.012860298156738281e+00,5.006658554077148438e+00,4.999994277954101562e+00,4.990890026092529297e+00,4.974585533142089844e+00,4.966188907623291016e+00,4.944087505340576172e+00,4.918554306030273438e+00,4.922640323638916016e+00,4.934243202209472656e+00,4.937671661376953125e+00,4.957131862640380859e+00,4.970520496368408203e+00,4.971413135528564453e+00,4.966701030731201172e+00,4.961500644683837891e+00,4.960390567779541016e+00,4.956108570098876953e+00,4.946384906768798828e+00,4.947534561157226562e+00,4.944329738616943359e+00,4.933846950531005859e+00,4.929359912872314453e+00,4.921545982360839844e+00,4.912334442138671875e+00,4.903814792633056641e+00,4.897584915161132812e+00,4.890335083007812500e+00,4.883837223052978516e+00,4.874376773834228516e+00,4.857561111450195312e+00,4.849454402923583984e+00,4.840935230255126953e+00,4.831423759460449219e+00,4.823432445526123047e+00,4.816818237304687500e+00,4.810011386871337891e+00,4.800118446350097656e+00,4.788834095001220703e+00,4.776221275329589844e+00,4.765034675598144531e+00,4.754403114318847656e+00,4.742024421691894531e+00,4.728795051574707031e+00,4.715670108795166016e+00,4.701694965362548828e+00,4.687794685363769531e+00,4.673246860504150391e+00,4.659707546234130859e+00,4.647031307220458984e+00,4.633093833923339844e+00,4.619285106658935547e+00,4.604907989501953125e+00,4.591705799102783203e+00,4.579227924346923828e+00,4.566604614257812500e+00,4.553055286407470703e+00,4.540017604827880859e+00,4.528067111968994141e+00,4.516275405883789062e+00,4.506694793701171875e+00,4.500621795654296875e+00,4.494120597839355469e+00,4.487880229949951172e+00,4.484304904937744141e+00,4.480037212371826172e+00,4.476150512695312500e+00,4.472024917602539062e+00,4.467195510864257812e+00,4.461956977844238281e+00,4.457017898559570312e+00,4.451768398284912109e+00,4.446410655975341797e+00,4.438991546630859375e+00,4.432314872741699219e+00,4.427416801452636719e+00,4.422167301177978516e+00,4.417703628540039062e+00,4.412129402160644531e+00,4.405847072601318359e+00,4.402600765228271484e+00,4.400323867797851562e+00,4.394610404968261719e+00,4.384868144989013672e+00,4.374213218688964844e+00,4.361773014068603516e+00,4.350404262542724609e+00,4.340072154998779297e+00,4.332960128784179688e+00,4.325196743011474609e+00,4.321343898773193359e+00,4.319399833679199219e+00,4.310202121734619141e+00,4.302708148956298828e+00,4.295406341552734375e+00,4.288879394531250000e+00,4.289294242858886719e+00,4.287604331970214844e+00,4.286413669586181641e+00,4.286815643310546875e+00,4.288743495941162109e+00,4.291466236114501953e+00,4.293318271636962891e+00,4.295496940612792969e+00,4.296910285949707031e+00,4.298557758331298828e+00,4.296436786651611328e+00,4.292062759399414062e+00,4.285124301910400391e+00
5.033903121948242188e+00,5.050704479217529297e+00,5.078629970550537109e+00,5.085340976715087891e+00,5.077459812164306641e+00,5.083193778991699219e+00,5.068431377410888672e+00,5.040383338928222656e+00,5.007454395294189453e+00,4.972165107727050781e+00,4.958204746246337891e+00,4.950385093688964844e+00,4.952470779418945312e+00,4.941205024719238281e+00,4.907323837280273438e+00,4.900440216064453125e+00,4.894271373748779297e+00,4.890415668487548828e+00,4.887467861175537109e+00,4.889729022979736328e+00,4.907327651977539062e+00,4.923571109771728516e+00,4.937128067016601562e+00,4.934764385223388672e+00,4.922360897064208984e+00,4.917822360992431641e+00,4.913564682006835938e+00,4.894973754882812500e+00,4.894243717193603516e+00,4.892274379730224609e+00,4.892122745513916016e+00,4.891856670379638672e+00,4.888068199157714844e+00,4.881867885589599609e+00,4.879531383514404297e+00,4.874055385589599609e+00,4.859799861907958984e+00,4.848057746887207031e+00,4.837191581726074219e+00,4.826663017272949219e+00,4.822760581970214844e+00,4.822996139526367188e+00,4.815881729125976562e+00,4.808554649353027344e+00,4.798936843872070312e+00,4.789604663848876953e+00,4.782008647918701172e+00,4.772497653961181641e+00,4.761926651000976562e+00,4.749108314514160156e+00,4.735609054565429688e+00,4.720844268798828125e+00,4.709539890289306641e+00,4.696912765502929688e+00,4.684733867645263672e+00,4.669998645782470703e+00,4.653692722320556641e+00,4.637560844421386719e+00,4.626675605773925781e+00,4.612745285034179688e+00,4.600454330444335938e+00,4.586661338806152344e+00,4.570622444152832031e+00,4.555227279663085938e+00,4.541229248046875000e+00,4.528650283813476562e+00,4.516921520233154297e+00,4.504017829895019531e+00,4.492610931396484375e+00,4.481323719024658203e+00,4.471314907073974609e+00,4.464590072631835938e+00,4.457178115844726562e+00,4.451364517211914062e+00,4.446866989135742188e+00,4.441475868225097656e+00,4.436098098754882812e+00,4.431676864624023438e+00,4.428261280059814453e+00,4.424277305603027344e+00,4.419785022735595703e+00,4.414931774139404297e+00,4.410876274108886719e+00,4.404048919677734375e+00,4.397408008575439453e+00,4.392850399017333984e+00,4.386901378631591797e+00,4.381258010864257812e+00,4.376522064208984375e+00,4.371227264404296875e+00,4.365720748901367188e+00,4.363008499145507812e+00,4.359209060668945312e+00,4.352187633514404297e+00,4.343784809112548828e+00,4.331009387969970703e+00,4.319277286529541016e+00,4.309726715087890625e+00,4.302623271942138672e+00,4.293304443359375000e+00,4.287417411804199219e+00,4.283339977264404297e+00,4.274456977844238281e+00,4.267200469970703125e+00,4.259286880493164062e+00,4.254860401153564453e+00,4.256500720977783203e+00,4.256508827209472656e+00,4.255985260009765625e+00,4.256456375122070312e+00,4.258310317993164062e+00,4.260940074920654297e+00,4.262937068939208984e+00,4.264791965484619141e+00,4.266050338745117188e+00,4.268040657043457031e+00,4.265728950500488281e+00,4.264973640441894531e+00,4.260938644409179688e+00
4.975415229797363281e+00,4.987880229949951172e+00,5.024470806121826172e+00,5.040966987609863281e+00,5.038926601409912109e+00,5.036619663238525391e+00,5.004784584045410156e+00,4.965219020843505859e+00,4.938092231750488281e+00,4.928688526153564453e+00,4.926402568817138672e+00,4.895577430725097656e+00,4.866674900054931641e+00,4.865731239318847656e+00,4.886092662811279297e+00,4.888796329498291016e+00,4.889636993408203125e+00,4.888250350952148438e+00,4.877772808074951172e+00,4.871042251586914062e+00,4.868803024291992188e+00,4.868571281433105469e+00,4.861097812652587891e+00,4.868287563323974609e+00,4.877038955688476562e+00,4.873594284057617188e+00,4.871599197387695312e+00,4.868054866790771484e+00,4.873947143554687500e+00,4.860305786132812500e+00,4.853759765625000000e+00,4.853537082672119141e+00,4.852303028106689453e+00,4.837945461273193359e+00,4.829283237457275391e+00,4.826395988464355469e+00,4.823899745941162109e+00,4.819174766540527344e+00,4.813398838043212891e+00,4.804920673370361328e+00,4.796772480010986328e+00,4.788489341735839844e+00,4.780580997467041016e+00,4.777005195617675781e+00,4.768795967102050781e+00,4.760570526123046875e+00,4.750226020812988281e+00,4.738828659057617188e+00,4.727401733398437500e+00,4.716906547546386719e+00,4.702019691467285156e+00,4.686848640441894531e+00,4.673448562622070312e+00,4.657911300659179688e+00,4.644146919250488281e+00,4.631050586700439453e+00,4.614290714263916016e+00,4.601092338562011719e+00,4.586761951446533203e+00,4.573658466339111328e+00,4.558493137359619141e+00,4.542068481445312500e+00,4.527753829956054688e+00,4.516794204711914062e+00,4.502934455871582031e+00,4.491237640380859375e+00,4.479808807373046875e+00,4.467941284179687500e+00,4.457437038421630859e+00,4.447195053100585938e+00,4.437641620635986328e+00,4.430013656616210938e+00,4.421920776367187500e+00,4.414453029632568359e+00,4.408642768859863281e+00,4.403913974761962891e+00,4.398675918579101562e+00,4.393238544464111328e+00,4.389848232269287109e+00,4.385794639587402344e+00,4.381428241729736328e+00,4.376129627227783203e+00,4.372702121734619141e+00,4.367837905883789062e+00,4.362402439117431641e+00,4.358380317687988281e+00,4.351630687713623047e+00,4.345229625701904297e+00,4.339525699615478516e+00,4.332787513732910156e+00,4.327944755554199219e+00,4.325021743774414062e+00,4.319430351257324219e+00,4.314518928527832031e+00,4.307649612426757812e+00,4.295094490051269531e+00,4.284201622009277344e+00,4.276009082794189453e+00,4.267510414123535156e+00,4.258627891540527344e+00,4.252000331878662109e+00,4.246297836303710938e+00,4.238033294677734375e+00,4.232023715972900391e+00,4.224838733673095703e+00,4.220588207244873047e+00,4.221923828125000000e+00,4.222473621368408203e+00,4.222924232482910156e+00,4.224008083343505859e+00,4.225850105285644531e+00,4.228861808776855469e+00,4.230958461761474609e+00,4.232770919799804688e+00,4.233527183532714844e+00,4.235083103179931641e+00,4.231373786926269531e+00,4.230895996093750000e+00,4.229973793029785156e+00
4.930932044982910156e+00,4.945024013519287109e+00,4.937501430511474609e+00,4.959615707397460938e+00,4.971911430358886719e+00,4.960824489593505859e+00,4.937213897705078125e+00,4.897964477539062500e+00,4.849595546722412109e+00,4.844760894775390625e+00,4.830134868621826172e+00,4.812777519226074219e+00,4.808903694152832031e+00,4.822753429412841797e+00,4.842426776885986328e+00,4.833555221557617188e+00,4.836556434631347656e+00,4.839540958404541016e+00,4.838208198547363281e+00,4.841049671173095703e+00,4.825988769531250000e+00,4.820436000823974609e+00,4.821976184844970703e+00,4.822953701019287109e+00,4.829446792602539062e+00,4.829351425170898438e+00,4.833231925964355469e+00,4.826082229614257812e+00,4.824223518371582031e+00,4.817993164062500000e+00,4.800872802734375000e+00,4.789393901824951172e+00,4.789917469024658203e+00,4.786789417266845703e+00,4.782423019409179688e+00,4.778980255126953125e+00,4.780407905578613281e+00,4.781149387359619141e+00,4.778689384460449219e+00,4.771404266357421875e+00,4.757540702819824219e+00,4.749323844909667969e+00,4.746368408203125000e+00,4.741254806518554688e+00,4.733340263366699219e+00,4.721947193145751953e+00,4.709381103515625000e+00,4.694087505340576172e+00,4.677923202514648438e+00,4.669690608978271484e+00,4.662579536437988281e+00,4.650915622711181641e+00,4.635295867919921875e+00,4.617118358612060547e+00,4.600038051605224609e+00,4.585700035095214844e+00,4.570767879486083984e+00,4.554800987243652344e+00,4.542298793792724609e+00,4.528608322143554688e+00,4.511520862579345703e+00,4.495903491973876953e+00,4.486230373382568359e+00,4.475110530853271484e+00,4.465146064758300781e+00,4.454766273498535156e+00,4.445539474487304688e+00,4.435368061065673828e+00,4.424510478973388672e+00,4.415031909942626953e+00,4.405982494354248047e+00,4.397747993469238281e+00,4.388871669769287109e+00,4.381303310394287109e+00,4.374642848968505859e+00,4.369809627532958984e+00,4.364134311676025391e+00,4.357632637023925781e+00,4.353674411773681641e+00,4.349868774414062500e+00,4.345171451568603516e+00,4.339192390441894531e+00,4.334850311279296875e+00,4.329151153564453125e+00,4.323677539825439453e+00,4.318942070007324219e+00,4.312309741973876953e+00,4.306146621704101562e+00,4.300614833831787109e+00,4.296042442321777344e+00,4.292757987976074219e+00,4.288833618164062500e+00,4.283913135528564453e+00,4.278520107269287109e+00,4.271417140960693359e+00,4.261025905609130859e+00,4.250226497650146484e+00,4.241515636444091797e+00,4.232389450073242188e+00,4.222174167633056641e+00,4.215345382690429688e+00,4.210186958312988281e+00,4.202926158905029297e+00,4.197473526000976562e+00,4.191847324371337891e+00,4.187469005584716797e+00,4.187774658203125000e+00,4.189516067504882812e+00,4.191799163818359375e+00,4.192764759063720703e+00,4.193288803100585938e+00,4.196082115173339844e+00,4.197283744812011719e+00,4.198940277099609375e+00,4.198978424072265625e+00,4.199224472045898438e+00,4.197237968444824219e+00,4.196927070617675781e+00,4.197060108184814453e+00
4.881404876708984375e+00,4.881902694702148438e+00,4.886281013488769531e+00,4.870233058929443359e+00,4.862160205841064453e+00,4.890635967254638672e+00,4.901064872741699219e+00,4.783268928527832031e+00,4.732389926910400391e+00,4.737457275390625000e+00,4.747499942779541016e+00,4.765974044799804688e+00,4.778207778930664062e+00,4.772441864013671875e+00,4.766926765441894531e+00,4.766833305358886719e+00,4.772307872772216797e+00,4.766704559326171875e+00,4.777734756469726562e+00,4.776993274688720703e+00,4.782976627349853516e+00,4.783367156982421875e+00,4.787537097930908203e+00,4.786882400512695312e+00,4.781616210937500000e+00,4.780457019805908203e+00,4.767853260040283203e+00,4.762010097503662109e+00,4.755352973937988281e+00,4.752099990844726562e+00,4.746831893920898438e+00,4.739004611968994141e+00,4.733607292175292969e+00,4.729954719543457031e+00,4.730429649353027344e+00,4.722471714019775391e+00,4.714449882507324219e+00,4.707309722900390625e+00,4.708078384399414062e+00,4.709804058074951172e+00,4.713030815124511719e+00,4.716800689697265625e+00,4.711920738220214844e+00,4.703053474426269531e+00,4.689894199371337891e+00,4.674285411834716797e+00,4.659341335296630859e+00,4.643149375915527344e+00,4.633475303649902344e+00,4.623433113098144531e+00,4.614624023437500000e+00,4.601997852325439453e+00,4.589601993560791016e+00,4.573345184326171875e+00,4.555469989776611328e+00,4.539481639862060547e+00,4.522999286651611328e+00,4.508934497833251953e+00,4.494224071502685547e+00,4.481384754180908203e+00,4.471982955932617188e+00,4.460411548614501953e+00,4.446300029754638672e+00,4.436490535736083984e+00,4.427780151367187500e+00,4.418088436126708984e+00,4.409792423248291016e+00,4.400192260742187500e+00,4.389408588409423828e+00,4.379959106445312500e+00,4.369899749755859375e+00,4.361572265625000000e+00,4.353079319000244141e+00,4.345667839050292969e+00,4.338973522186279297e+00,4.333552360534667969e+00,4.327202320098876953e+00,4.320355892181396484e+00,4.314865112304687500e+00,4.310910701751708984e+00,4.306220054626464844e+00,4.300461292266845703e+00,4.295651435852050781e+00,4.287748813629150391e+00,4.282122135162353516e+00,4.278840541839599609e+00,4.274157047271728516e+00,4.268401622772216797e+00,4.263617038726806641e+00,4.260601997375488281e+00,4.256648063659667969e+00,4.252262115478515625e+00,4.244981288909912109e+00,4.239172935485839844e+00,4.233064651489257812e+00,4.225476741790771484e+00,4.217572212219238281e+00,4.209518432617187500e+00,4.200878143310546875e+00,4.190263748168945312e+00,4.181537628173828125e+00,4.175776958465576172e+00,4.166709423065185547e+00,4.159968376159667969e+00,4.157194614410400391e+00,4.156804084777832031e+00,4.158387660980224609e+00,4.159211635589599609e+00,4.160751819610595703e+00,4.161935806274414062e+00,4.162286758422851562e+00,4.164686203002929688e+00,4.165317535400390625e+00,4.166492938995361328e+00,4.165933132171630859e+00,4.165571689605712891e+00,4.164712429046630859e+00,4.163655281066894531e+00,4.162981510162353516e+00
4.828011989593505859e+00,4.812895298004150391e+00,4.826287746429443359e+00,4.793743133544921875e+00,4.757383346557617188e+00,4.715710639953613281e+00,4.715288639068603516e+00,4.705919742584228516e+00,4.716032505035400391e+00,4.735550403594970703e+00,4.745771884918212891e+00,4.752107143402099609e+00,4.737557411193847656e+00,4.725372791290283203e+00,4.716503143310546875e+00,4.736441612243652344e+00,4.740926742553710938e+00,4.750470161437988281e+00,4.742652416229248047e+00,4.742212295532226562e+00,4.747928619384765625e+00,4.752845287322998047e+00,4.759072303771972656e+00,4.757877349853515625e+00,4.751772880554199219e+00,4.737053394317626953e+00,4.723794937133789062e+00,4.720584869384765625e+00,4.721854686737060547e+00,4.719501972198486328e+00,4.714241504669189453e+00,4.708871364593505859e+00,4.701625347137451172e+00,4.700421810150146484e+00,4.694691181182861328e+00,4.691451549530029297e+00,4.686499595642089844e+00,4.683994770050048828e+00,4.680637836456298828e+00,4.682052612304687500e+00,4.684145450592041016e+00,4.683456420898437500e+00,4.676916122436523438e+00,4.667871475219726562e+00,4.650283336639404297e+00,4.632080078125000000e+00,4.617495536804199219e+00,4.606652736663818359e+00,4.595786094665527344e+00,4.584482192993164062e+00,4.572182655334472656e+00,4.560201644897460938e+00,4.546298980712890625e+00,4.529057502746582031e+00,4.512819290161132812e+00,4.495547294616699219e+00,4.478894233703613281e+00,4.467870712280273438e+00,4.453844070434570312e+00,4.442555427551269531e+00,4.433968544006347656e+00,4.422762393951416016e+00,4.412899017333984375e+00,4.405536651611328125e+00,4.397356033325195312e+00,4.386697292327880859e+00,4.377424240112304688e+00,4.368310451507568359e+00,4.357831954956054688e+00,4.348531723022460938e+00,4.339077949523925781e+00,4.330625057220458984e+00,4.320982456207275391e+00,4.312552452087402344e+00,4.306507587432861328e+00,4.300622463226318359e+00,4.294498443603515625e+00,4.286776065826416016e+00,4.279277801513671875e+00,4.273537158966064453e+00,4.267128944396972656e+00,4.260209560394287109e+00,4.255280971527099609e+00,4.248837471008300781e+00,4.243746280670166016e+00,4.239428520202636719e+00,4.235272884368896484e+00,4.229826450347900391e+00,4.224390983581542969e+00,4.219375610351562500e+00,4.214946269989013672e+00,4.211438179016113281e+00,4.205693244934082031e+00,4.201315402984619141e+00,4.193936347961425781e+00,4.184814929962158203e+00,4.179811000823974609e+00,4.174397468566894531e+00,4.168755054473876953e+00,4.158283233642578125e+00,4.142464160919189453e+00,4.136788368225097656e+00,4.132254123687744141e+00,4.127727508544921875e+00,4.126138687133789062e+00,4.126327037811279297e+00,4.127527236938476562e+00,4.127290248870849609e+00,4.127589702606201172e+00,4.129417896270751953e+00,4.130581855773925781e+00,4.133021354675292969e+00,4.132420539855957031e+00,4.132043361663818359e+00,4.131024837493896484e+00,4.129233837127685547e+00,4.128124237060546875e+00,4.127718448638916016e+00,4.127152919769287109e+00
4.795223236083984375e+00,4.779668807983398438e+00,4.775495529174804688e+00,4.756994247436523438e+00,4.737780094146728516e+00,4.710455417633056641e+00,4.697954177856445312e+00,4.703100204467773438e+00,4.683554649353027344e+00,4.677730560302734375e+00,4.663920402526855469e+00,4.660135269165039062e+00,4.662379741668701172e+00,4.671165943145751953e+00,4.681448459625244141e+00,4.680603504180908203e+00,4.679219245910644531e+00,4.689176082611083984e+00,4.681395053863525391e+00,4.692951202392578125e+00,4.693270683288574219e+00,4.701251029968261719e+00,4.707115650177001953e+00,4.715196609497070312e+00,4.710245132446289062e+00,4.703704833984375000e+00,4.697945594787597656e+00,4.693058013916015625e+00,4.686880588531494141e+00,4.687246799468994141e+00,4.685714244842529297e+00,4.683492660522460938e+00,4.683148860931396484e+00,4.680118560791015625e+00,4.673892021179199219e+00,4.667966365814208984e+00,4.660646915435791016e+00,4.653741836547851562e+00,4.648060798645019531e+00,4.649695873260498047e+00,4.649435520172119141e+00,4.641853809356689453e+00,4.635988235473632812e+00,4.629250526428222656e+00,4.614874839782714844e+00,4.598883152008056641e+00,4.585235118865966797e+00,4.573286056518554688e+00,4.561106681823730469e+00,4.549492359161376953e+00,4.539591789245605469e+00,4.519987106323242188e+00,4.500906944274902344e+00,4.482455253601074219e+00,4.467016220092773438e+00,4.451291084289550781e+00,4.436477661132812500e+00,4.428610801696777344e+00,4.419109344482421875e+00,4.406227588653564453e+00,4.395949840545654297e+00,4.386961460113525391e+00,4.377709388732910156e+00,4.367991447448730469e+00,4.359153270721435547e+00,4.352382659912109375e+00,4.344268321990966797e+00,4.335804462432861328e+00,4.326034545898437500e+00,4.317409038543701172e+00,4.308798789978027344e+00,4.300073146820068359e+00,4.290621757507324219e+00,4.281300067901611328e+00,4.273398399353027344e+00,4.266004562377929688e+00,4.259224414825439453e+00,4.252203941345214844e+00,4.245640277862548828e+00,4.239632129669189453e+00,4.233129978179931641e+00,4.226943969726562500e+00,4.221032619476318359e+00,4.215083122253417969e+00,4.209604263305664062e+00,4.204107284545898438e+00,4.199308872222900391e+00,4.193001747131347656e+00,4.187250137329101562e+00,4.182015419006347656e+00,4.177860260009765625e+00,4.174152374267578125e+00,4.167884349822998047e+00,4.162211894989013672e+00,4.154235363006591797e+00,4.143309116363525391e+00,4.131912231445312500e+00,4.121884822845458984e+00,4.115820407867431641e+00,4.106644153594970703e+00,4.097701549530029297e+00,4.097589492797851562e+00,4.095571517944335938e+00,4.092987537384033203e+00,4.091847419738769531e+00,4.092508316040039062e+00,4.094998836517333984e+00,4.096071243286132812e+00,4.095472335815429688e+00,4.095975875854492188e+00,4.097084999084472656e+00,4.099870204925537109e+00,4.100241661071777344e+00,4.099408149719238281e+00,4.098260402679443359e+00,4.095109462738037109e+00,4.092687606811523438e+00,4.091915130615234375e+00,4.090447425842285156e+00
4.760816574096679688e+00,4.762787342071533203e+00,4.752090930938720703e+00,4.739168167114257812e+00,4.721314907073974609e+00,4.677754402160644531e+00,4.657361984252929688e+00,4.652269840240478516e+00,4.629761219024658203e+00,4.607151031494140625e+00,4.594007968902587891e+00,4.594275474548339844e+00,4.595659255981445312e+00,4.594394683837890625e+00,4.599637985229492188e+00,4.592714786529541016e+00,4.584124565124511719e+00,4.589207649230957031e+00,4.611659049987792969e+00,4.628297805786132812e+00,4.640667915344238281e+00,4.646403789520263672e+00,4.646657943725585938e+00,4.641577720642089844e+00,4.653215408325195312e+00,4.668906211853027344e+00,4.672714710235595703e+00,4.662920951843261719e+00,4.665452957153320312e+00,4.671823501586914062e+00,4.672184467315673828e+00,4.670946121215820312e+00,4.669843673706054688e+00,4.660261154174804688e+00,4.651157855987548828e+00,4.637887001037597656e+00,4.627923488616943359e+00,4.621541023254394531e+00,4.620828151702880859e+00,4.615808010101318359e+00,4.611658096313476562e+00,4.608579635620117188e+00,4.599953174591064453e+00,4.586996555328369141e+00,4.572333812713623047e+00,4.559837818145751953e+00,4.550377845764160156e+00,4.533340930938720703e+00,4.510716438293457031e+00,4.501379489898681641e+00,4.490077972412109375e+00,4.472586154937744141e+00,4.456217765808105469e+00,4.434548377990722656e+00,4.420357227325439453e+00,4.407032489776611328e+00,4.394094944000244141e+00,4.387932777404785156e+00,4.381198883056640625e+00,4.373264789581298828e+00,4.365367889404296875e+00,4.356871128082275391e+00,4.346377372741699219e+00,4.335471630096435547e+00,4.324776649475097656e+00,4.318852424621582031e+00,4.312280654907226562e+00,4.303885459899902344e+00,4.295001029968261719e+00,4.286042690277099609e+00,4.277719020843505859e+00,4.268918991088867188e+00,4.259333610534667969e+00,4.249764442443847656e+00,4.240708827972412109e+00,4.231502532958984375e+00,4.223466873168945312e+00,4.215944290161132812e+00,4.209362983703613281e+00,4.203049182891845703e+00,4.195504188537597656e+00,4.189526557922363281e+00,4.184236049652099609e+00,4.179064273834228516e+00,4.173932552337646484e+00,4.167798042297363281e+00,4.161967277526855469e+00,4.155299663543701172e+00,4.150128364562988281e+00,4.144324779510498047e+00,4.138972759246826172e+00,4.134125232696533203e+00,4.128910064697265625e+00,4.122948169708251953e+00,4.114944458007812500e+00,4.104452133178710938e+00,4.093355655670166016e+00,4.081409931182861328e+00,4.073565006256103516e+00,4.067463397979736328e+00,4.064685821533203125e+00,4.062453746795654297e+00,4.059472084045410156e+00,4.059102058410644531e+00,4.058844089508056641e+00,4.058744907379150391e+00,4.060348987579345703e+00,4.061689853668212891e+00,4.062642097473144531e+00,4.063862800598144531e+00,4.065354824066162109e+00,4.068016529083251953e+00,4.069324493408203125e+00,4.068638801574707031e+00,4.066980361938476562e+00,4.064012527465820312e+00,4.061469554901123047e+00,4.059386730194091797e+00,4.056496143341064453e+00
