4.729572772979736328e+00,4.724554538726806641e+00,4.720179557800292969e+00,4.716229438781738281e+00,4.712882518768310547e+00,4.709566116333007812e+00,4.706010818481445312e+00,4.704315662384033203e+00,4.702758312225341797e+00,4.701640129089355469e+00,4.701302051544189453e+00,4.701411247253417969e+00,4.701448917388916016e+00,4.703214645385742188e+00,4.705912590026855469e+00,4.709159374237060547e+00,4.713140964508056641e+00,4.716552734375000000e+00,4.720382690429687500e+00,4.724561214447021484e+00,4.729517936706542969e+00,4.736282825469970703e+00,4.743916034698486328e+00,4.752315521240234375e+00,4.760814666748046875e+00,4.769561767578125000e+00,4.778453826904296875e+00,4.787320137023925781e+00,4.796721935272216797e+00,4.805539608001708984e+00,4.813967704772949219e+00,4.823336124420166016e+00,4.832994461059570312e+00,4.842937469482421875e+00,4.853372097015380859e+00,4.865144252777099609e+00,4.876834869384765625e+00,4.888310432434082031e+00,4.900320053100585938e+00,4.912816047668457031e+00,4.925229072570800781e+00,4.937952995300292969e+00,4.950169086456298828e+00,4.962505340576171875e+00,4.975128650665283203e+00,4.986232280731201172e+00,4.996667385101318359e+00,5.006676197052001953e+00,5.016317844390869141e+00,5.026363372802734375e+00,5.037095546722412109e+00,5.049008369445800781e+00,5.061244487762451172e+00,5.073656082153320312e+00,5.085875988006591797e+00,5.098708629608154297e+00,5.112398147583007812e+00,5.127423763275146484e+00,5.142841815948486328e+00,5.158099174499511719e+00,5.174428939819335938e+00,5.188643932342529297e+00,5.201410293579101562e+00,5.214202880859375000e+00,5.226359367370605469e+00,5.240385055541992188e+00,5.255449771881103516e+00,5.269457340240478516e+00,5.285302162170410156e+00,5.298215866088867188e+00,5.309607982635498047e+00,5.319759368896484375e+00,5.329300403594970703e+00,5.339480400085449219e+00,5.349254131317138672e+00,5.361454010009765625e+00,5.372744083404541016e+00,5.384501934051513672e+00,5.397543430328369141e+00,5.412096023559570312e+00,5.429281234741210938e+00,5.448558807373046875e+00,5.468060493469238281e+00,5.488388538360595703e+00,5.506830215454101562e+00,5.519767284393310547e+00,5.533123016357421875e+00,5.545801162719726562e+00,5.558514595031738281e+00,5.573448657989501953e+00,5.589889526367187500e+00,5.606726169586181641e+00,5.620737075805664062e+00,5.630310535430908203e+00,5.639791488647460938e+00,5.650323867797851562e+00,5.659495353698730469e+00,5.666582584381103516e+00,5.669893741607666016e+00,5.670059204101562500e+00,5.670235157012939453e+00,5.676634311676025391e+00,5.686471939086914062e+00,5.697111129760742188e+00,5.709578037261962891e+00,5.712941169738769531e+00,5.712836742401123047e+00,5.708217144012451172e+00,5.701343536376953125e+00,5.688243389129638672e+00,5.670891284942626953e+00,5.641906261444091797e+00,5.601358413696289062e+00,5.571451187133789062e+00,5.491237640380859375e+00,5.310296535491943359e+00,5.059945583343505859e+00,4.748735427856445312e+00,4.586413383483886719e+00
4.723734855651855469e+00,4.718640327453613281e+00,4.714224815368652344e+00,4.710131168365478516e+00,4.706517219543457031e+00,4.702844142913818359e+00,4.699277877807617188e+00,4.697640419006347656e+00,4.695875167846679688e+00,4.694625854492187500e+00,4.694133758544921875e+00,4.694240570068359375e+00,4.694460868835449219e+00,4.696424007415771484e+00,4.699160099029541016e+00,4.702266216278076172e+00,4.706109523773193359e+00,4.709559917449951172e+00,4.713635444641113281e+00,4.718018054962158203e+00,4.723225116729736328e+00,4.730167388916015625e+00,4.737936973571777344e+00,4.746311664581298828e+00,4.754858970642089844e+00,4.763660430908203125e+00,4.772747039794921875e+00,4.781679630279541016e+00,4.791449546813964844e+00,4.800475597381591797e+00,4.808973789215087891e+00,4.818822860717773438e+00,4.828526020050048828e+00,4.838665008544921875e+00,4.849508762359619141e+00,4.861539840698242188e+00,4.873437404632568359e+00,4.885266780853271484e+00,4.897451400756835938e+00,4.909910202026367188e+00,4.922620296478271484e+00,4.935315132141113281e+00,4.947534084320068359e+00,4.959884166717529297e+00,4.972530364990234375e+00,4.983734130859375000e+00,4.994459152221679688e+00,5.004494667053222656e+00,5.014029502868652344e+00,5.023866653442382812e+00,5.034131050109863281e+00,5.045848369598388672e+00,5.057638168334960938e+00,5.069766044616699219e+00,5.082081317901611328e+00,5.094676971435546875e+00,5.108069419860839844e+00,5.123098850250244141e+00,5.138353347778320312e+00,5.153625011444091797e+00,5.169926166534423828e+00,5.183804988861083984e+00,5.196441650390625000e+00,5.209139823913574219e+00,5.221149921417236328e+00,5.235364913940429688e+00,5.250202178955078125e+00,5.264489173889160156e+00,5.280127525329589844e+00,5.292994976043701172e+00,5.304246902465820312e+00,5.313409805297851562e+00,5.322407245635986328e+00,5.331684589385986328e+00,5.341081619262695312e+00,5.352541446685791016e+00,5.363253593444824219e+00,5.374307155609130859e+00,5.386811733245849609e+00,5.401080131530761719e+00,5.418931484222412109e+00,5.438860893249511719e+00,5.458849906921386719e+00,5.480250358581542969e+00,5.498543739318847656e+00,5.512447357177734375e+00,5.526437759399414062e+00,5.540523529052734375e+00,5.554702758789062500e+00,5.570777416229248047e+00,5.586614608764648438e+00,5.604947566986083984e+00,5.618485927581787109e+00,5.628528594970703125e+00,5.637536048889160156e+00,5.648005485534667969e+00,5.657037258148193359e+00,5.663497924804687500e+00,5.667550563812255859e+00,5.667390823364257812e+00,5.667473316192626953e+00,5.672032356262207031e+00,5.681418418884277344e+00,5.692226409912109375e+00,5.702713489532470703e+00,5.705761909484863281e+00,5.705013275146484375e+00,5.699650764465332031e+00,5.693058490753173828e+00,5.679511070251464844e+00,5.660137176513671875e+00,5.629782676696777344e+00,5.588257312774658203e+00,5.569351196289062500e+00,5.477075099945068359e+00,5.279596328735351562e+00,5.022801399230957031e+00,4.737411022186279297e+00,4.574584960937500000e+00
4.717819213867187500e+00,4.712846279144287109e+00,4.708734512329101562e+00,4.704729557037353516e+00,4.701226234436035156e+00,4.697488784790039062e+00,4.693789005279541016e+00,4.691715717315673828e+00,4.689706802368164062e+00,4.688119888305664062e+00,4.687550544738769531e+00,4.687575817108154297e+00,4.687641620635986328e+00,4.689415454864501953e+00,4.691911220550537109e+00,4.695030689239501953e+00,4.698811054229736328e+00,4.702418327331542969e+00,4.706580638885498047e+00,4.711002826690673828e+00,4.716197013854980469e+00,4.722961902618408203e+00,4.730991363525390625e+00,4.739592075347900391e+00,4.748319625854492188e+00,4.757399082183837891e+00,4.766695499420166016e+00,4.776144504547119141e+00,4.786268711090087891e+00,4.795782089233398438e+00,4.804526329040527344e+00,4.814804553985595703e+00,4.825037002563476562e+00,4.835436820983886719e+00,4.846518516540527344e+00,4.858838558197021484e+00,4.871217727661132812e+00,4.883207798004150391e+00,4.895674228668212891e+00,4.907793521881103516e+00,4.920073986053466797e+00,4.932312488555908203e+00,4.944233417510986328e+00,4.956346035003662109e+00,4.968881607055664062e+00,4.979792594909667969e+00,4.990365028381347656e+00,5.000277519226074219e+00,5.009556770324707031e+00,5.019173145294189453e+00,5.029035091400146484e+00,5.040441989898681641e+00,5.051730155944824219e+00,5.063557624816894531e+00,5.075771331787109375e+00,5.088041782379150391e+00,5.101215839385986328e+00,5.116075515747070312e+00,5.131425380706787109e+00,5.146939754486083984e+00,5.163008213043212891e+00,5.176855087280273438e+00,5.189543247222900391e+00,5.202103137969970703e+00,5.213891506195068359e+00,5.228233814239501953e+00,5.242731094360351562e+00,5.256661891937255859e+00,5.272089958190917969e+00,5.284605503082275391e+00,5.295367240905761719e+00,5.303859233856201172e+00,5.312377929687500000e+00,5.321128368377685547e+00,5.329981803894042969e+00,5.341299057006835938e+00,5.352062225341796875e+00,5.363208770751953125e+00,5.375537872314453125e+00,5.389090538024902344e+00,5.406768798828125000e+00,5.426558017730712891e+00,5.446447849273681641e+00,5.469351768493652344e+00,5.489650726318359375e+00,5.504675388336181641e+00,5.520835399627685547e+00,5.535987377166748047e+00,5.552142143249511719e+00,5.568792819976806641e+00,5.585885047912597656e+00,5.603458881378173828e+00,5.618150711059570312e+00,5.628026008605957031e+00,5.637947559356689453e+00,5.648618698120117188e+00,5.657345771789550781e+00,5.664111137390136719e+00,5.668600559234619141e+00,5.667660713195800781e+00,5.667460918426513672e+00,5.671072483062744141e+00,5.677995204925537109e+00,5.687883377075195312e+00,5.696284294128417969e+00,5.697815418243408203e+00,5.698175430297851562e+00,5.691903114318847656e+00,5.684742450714111328e+00,5.670728206634521484e+00,5.649435520172119141e+00,5.618660449981689453e+00,5.578286170959472656e+00,5.563758373260498047e+00,5.458799839019775391e+00,5.248744487762451172e+00,4.982898712158203125e+00,4.730264186859130859e+00,4.566800117492675781e+00
4.712264537811279297e+00,4.707320690155029297e+00,4.703153133392333984e+00,4.699223041534423828e+00,4.696008205413818359e+00,4.692370414733886719e+00,4.688642501831054688e+00,4.685909271240234375e+00,4.683545112609863281e+00,4.681489944458007812e+00,4.680203437805175781e+00,4.680177688598632812e+00,4.680270195007324219e+00,4.681905746459960938e+00,4.684755325317382812e+00,4.687666416168212891e+00,4.691242218017578125e+00,4.695073127746582031e+00,4.699303150177001953e+00,4.703989028930664062e+00,4.709439754486083984e+00,4.716358184814453125e+00,4.724381923675537109e+00,4.733177661895751953e+00,4.741989612579345703e+00,4.751273632049560547e+00,4.760823249816894531e+00,4.770459175109863281e+00,4.780975818634033203e+00,4.790708541870117188e+00,4.799702167510986328e+00,4.810614585876464844e+00,4.821044445037841797e+00,4.831810951232910156e+00,4.843214511871337891e+00,4.855637073516845703e+00,4.868070602416992188e+00,4.880042552947998047e+00,4.892697334289550781e+00,4.904453277587890625e+00,4.916689395904541016e+00,4.928424835205078125e+00,4.939836502075195312e+00,4.951621532440185547e+00,4.963793754577636719e+00,4.974415302276611328e+00,4.984870433807373047e+00,4.994602203369140625e+00,5.003593921661376953e+00,5.013078689575195312e+00,5.022467136383056641e+00,5.033560752868652344e+00,5.044444084167480469e+00,5.056210517883300781e+00,5.068511962890625000e+00,5.080431461334228516e+00,5.093533992767333984e+00,5.108248710632324219e+00,5.123703002929687500e+00,5.139297008514404297e+00,5.155025005340576172e+00,5.169051647186279297e+00,5.181800365447998047e+00,5.194449424743652344e+00,5.206579208374023438e+00,5.220984935760498047e+00,5.235114097595214844e+00,5.248718738555908203e+00,5.263762950897216797e+00,5.275955200195312500e+00,5.286463737487792969e+00,5.294762134552001953e+00,5.302329063415527344e+00,5.311047554016113281e+00,5.320133686065673828e+00,5.331794261932373047e+00,5.343152046203613281e+00,5.354228973388671875e+00,5.366777420043945312e+00,5.380658626556396484e+00,5.398286819458007812e+00,5.416881084442138672e+00,5.437175750732421875e+00,5.460773944854736328e+00,5.482502937316894531e+00,5.501056671142578125e+00,5.519506454467773438e+00,5.536043167114257812e+00,5.554070949554443359e+00,5.571668624877929688e+00,5.589803695678710938e+00,5.607333183288574219e+00,5.622937679290771484e+00,5.632396697998046875e+00,5.641116142272949219e+00,5.651305675506591797e+00,5.660455703735351562e+00,5.667574405670166016e+00,5.671354770660400391e+00,5.671042919158935547e+00,5.670131683349609375e+00,5.674342632293701172e+00,5.681593418121337891e+00,5.689737319946289062e+00,5.695985317230224609e+00,5.696212291717529297e+00,5.695033073425292969e+00,5.685695171356201172e+00,5.676820755004882812e+00,5.660825252532958984e+00,5.638952732086181641e+00,5.609592914581298828e+00,5.575411796569824219e+00,5.560228347778320312e+00,5.444540977478027344e+00,5.223048210144042969e+00,4.955073356628417969e+00,4.720884799957275391e+00,4.561480522155761719e+00
4.705236434936523438e+00,4.700217247009277344e+00,4.696217060089111328e+00,4.692384719848632812e+00,4.689104080200195312e+00,4.685456752777099609e+00,4.681600570678710938e+00,4.678599357604980469e+00,4.675553798675537109e+00,4.673175811767578125e+00,4.671311855316162109e+00,4.670758247375488281e+00,4.671040058135986328e+00,4.672698974609375000e+00,4.675629138946533203e+00,4.678584098815917969e+00,4.682189941406250000e+00,4.686336040496826172e+00,4.690743923187255859e+00,4.695956230163574219e+00,4.701832771301269531e+00,4.708953380584716797e+00,4.717313289642333984e+00,4.726244449615478516e+00,4.735313892364501953e+00,4.744770050048828125e+00,4.754331111907958984e+00,4.764214992523193359e+00,4.775000095367431641e+00,4.784698009490966797e+00,4.794044971466064453e+00,4.805038452148437500e+00,4.815682888031005859e+00,4.826850414276123047e+00,4.838412284851074219e+00,4.851022243499755859e+00,4.863652229309082031e+00,4.875987052917480469e+00,4.888714790344238281e+00,4.900262832641601562e+00,4.912168502807617188e+00,4.923300743103027344e+00,4.934639930725097656e+00,4.946791172027587891e+00,4.958695888519287109e+00,4.969597339630126953e+00,4.979988574981689453e+00,4.989478111267089844e+00,4.998604774475097656e+00,5.007529735565185547e+00,5.016320705413818359e+00,5.027139663696289062e+00,5.037431240081787109e+00,5.048679828643798828e+00,5.060865402221679688e+00,5.072721481323242188e+00,5.085488319396972656e+00,5.100446224212646484e+00,5.115805149078369141e+00,5.131275653839111328e+00,5.146998405456542969e+00,5.160665988922119141e+00,5.173633575439453125e+00,5.185838699340820312e+00,5.197771549224853516e+00,5.211525440216064453e+00,5.224683284759521484e+00,5.237843036651611328e+00,5.252776622772216797e+00,5.264920234680175781e+00,5.275294303894042969e+00,5.284394741058349609e+00,5.291845798492431641e+00,5.301251411437988281e+00,5.311206817626953125e+00,5.322934627532958984e+00,5.334267616271972656e+00,5.345735073089599609e+00,5.358236312866210938e+00,5.371698379516601562e+00,5.390139102935791016e+00,5.408176898956298828e+00,5.427474975585937500e+00,5.450358867645263672e+00,5.472980499267578125e+00,5.493730068206787109e+00,5.514400482177734375e+00,5.532710552215576172e+00,5.551452159881591797e+00,5.572863578796386719e+00,5.593908309936523438e+00,5.612066268920898438e+00,5.623965263366699219e+00,5.633917808532714844e+00,5.642298698425292969e+00,5.654155254364013672e+00,5.665914535522460938e+00,5.673378467559814453e+00,5.677672863006591797e+00,5.676797866821289062e+00,5.674847602844238281e+00,5.678838729858398438e+00,5.685489654541015625e+00,5.690530776977539062e+00,5.696364879608154297e+00,5.694393157958984375e+00,5.689099788665771484e+00,5.679607391357421875e+00,5.668620586395263672e+00,5.650984287261962891e+00,5.630613803863525391e+00,5.603133678436279297e+00,5.575572490692138672e+00,5.554876804351806641e+00,5.450605392456054688e+00,5.220195293426513672e+00,4.930189609527587891e+00,4.704728603363037109e+00,4.549831390380859375e+00
4.700157642364501953e+00,4.695110321044921875e+00,4.691104888916015625e+00,4.687375068664550781e+00,4.683726787567138672e+00,4.679888248443603516e+00,4.675787925720214844e+00,4.672341346740722656e+00,4.668584823608398438e+00,4.665970325469970703e+00,4.663684844970703125e+00,4.662565708160400391e+00,4.662641525268554688e+00,4.664080142974853516e+00,4.666796684265136719e+00,4.669790744781494141e+00,4.673411369323730469e+00,4.677996635437011719e+00,4.682618618011474609e+00,4.688095092773437500e+00,4.694324970245361328e+00,4.701967716217041016e+00,4.710758209228515625e+00,4.719879150390625000e+00,4.729171752929687500e+00,4.738519668579101562e+00,4.748131275177001953e+00,4.758096218109130859e+00,4.769069194793701172e+00,4.778841495513916016e+00,4.788118362426757812e+00,4.799026966094970703e+00,4.810036659240722656e+00,4.821222305297851562e+00,4.832944393157958984e+00,4.845800399780273438e+00,4.858788490295410156e+00,4.871409893035888672e+00,4.884009361267089844e+00,4.895527839660644531e+00,4.906951904296875000e+00,4.918199062347412109e+00,4.929589748382568359e+00,4.941494941711425781e+00,4.953165054321289062e+00,4.963758945465087891e+00,4.973824501037597656e+00,4.983297348022460938e+00,4.992324829101562500e+00,5.000985145568847656e+00,5.009517669677734375e+00,5.019590854644775391e+00,5.029456615447998047e+00,5.040415763854980469e+00,5.052222728729248047e+00,5.064369678497314453e+00,5.077035903930664062e+00,5.091694355010986328e+00,5.106612682342529297e+00,5.121480941772460938e+00,5.137480258941650391e+00,5.151225090026855469e+00,5.164186000823974609e+00,5.176450729370117188e+00,5.188306808471679688e+00,5.201664447784423828e+00,5.214539051055908203e+00,5.227371692657470703e+00,5.241784572601318359e+00,5.254091739654541016e+00,5.265180110931396484e+00,5.275198936462402344e+00,5.283292293548583984e+00,5.294395923614501953e+00,5.304858207702636719e+00,5.316961288452148438e+00,5.328352451324462891e+00,5.339342594146728516e+00,5.352480411529541016e+00,5.365463733673095703e+00,5.382937431335449219e+00,5.400623321533203125e+00,5.418840885162353516e+00,5.443165302276611328e+00,5.468348503112792969e+00,5.491470336914062500e+00,5.513302803039550781e+00,5.534031391143798828e+00,5.554948806762695312e+00,5.577224731445312500e+00,5.598726749420166016e+00,5.618663787841796875e+00,5.627761363983154297e+00,5.640130043029785156e+00,5.650081157684326172e+00,5.661348819732666016e+00,5.673966884613037109e+00,5.683359146118164062e+00,5.689064979553222656e+00,5.689680099487304688e+00,5.687930107116699219e+00,5.691570281982421875e+00,5.696078300476074219e+00,5.696920871734619141e+00,5.699353694915771484e+00,5.693166732788085938e+00,5.684458732604980469e+00,5.673571586608886719e+00,5.661067008972167969e+00,5.642920494079589844e+00,5.623343467712402344e+00,5.595590591430664062e+00,5.572034358978271484e+00,5.550129413604736328e+00,5.456614494323730469e+00,5.228733062744140625e+00,4.931262969970703125e+00,4.695901870727539062e+00,4.540241241455078125e+00
4.695396900177001953e+00,4.689934253692626953e+00,4.685582160949707031e+00,4.681468486785888672e+00,4.677837371826171875e+00,4.673694610595703125e+00,4.669126510620117188e+00,4.665232658386230469e+00,4.660679340362548828e+00,4.657677650451660156e+00,4.655230045318603516e+00,4.653642177581787109e+00,4.653313159942626953e+00,4.654822826385498047e+00,4.657893180847167969e+00,4.661008358001708984e+00,4.665017604827880859e+00,4.669830799102783203e+00,4.674315929412841797e+00,4.680155754089355469e+00,4.686516284942626953e+00,4.694668769836425781e+00,4.703933238983154297e+00,4.713322162628173828e+00,4.722939968109130859e+00,4.732171535491943359e+00,4.741995811462402344e+00,4.752062797546386719e+00,4.763251781463623047e+00,4.772872447967529297e+00,4.782309055328369141e+00,4.793378829956054688e+00,4.804591655731201172e+00,4.816107749938964844e+00,4.828348159790039062e+00,4.841687202453613281e+00,4.854925155639648438e+00,4.867760181427001953e+00,4.880257129669189453e+00,4.892034530639648438e+00,4.903587818145751953e+00,4.914783954620361328e+00,4.926479339599609375e+00,4.937947273254394531e+00,4.949060440063476562e+00,4.959450244903564453e+00,4.969033718109130859e+00,4.978247165679931641e+00,4.987021923065185547e+00,4.995389938354492188e+00,5.003853797912597656e+00,5.013526439666748047e+00,5.022860527038574219e+00,5.033682346343994141e+00,5.045320510864257812e+00,5.057028770446777344e+00,5.069611072540283203e+00,5.083437442779541016e+00,5.098201274871826172e+00,5.112847328186035156e+00,5.128646373748779297e+00,5.142527580261230469e+00,5.155037879943847656e+00,5.167039871215820312e+00,5.178867340087890625e+00,5.191482067108154297e+00,5.203823089599609375e+00,5.216149330139160156e+00,5.230293750762939453e+00,5.243678092956542969e+00,5.255217075347900391e+00,5.265462875366210938e+00,5.274283885955810547e+00,5.285563468933105469e+00,5.296511173248291016e+00,5.309288501739501953e+00,5.320981502532958984e+00,5.331474781036376953e+00,5.344611644744873047e+00,5.356998920440673828e+00,5.372666835784912109e+00,5.388146400451660156e+00,5.405847072601318359e+00,5.431750297546386719e+00,5.460130691528320312e+00,5.487263202667236328e+00,5.510424137115478516e+00,5.534074783325195312e+00,5.555467128753662109e+00,5.574990272521972656e+00,5.595909595489501953e+00,5.612421035766601562e+00,5.621757984161376953e+00,5.635939121246337891e+00,5.644528388977050781e+00,5.655200958251953125e+00,5.669949531555175781e+00,5.682518959045410156e+00,5.686569213867187500e+00,5.687828540802001953e+00,5.686716079711914062e+00,5.687750339508056641e+00,5.696848869323730469e+00,5.693295478820800781e+00,5.693214893341064453e+00,5.684967041015625000e+00,5.675557136535644531e+00,5.662023544311523438e+00,5.645802021026611328e+00,5.628349781036376953e+00,5.609449386596679688e+00,5.584777355194091797e+00,5.557232856750488281e+00,5.540914535522460938e+00,5.467492103576660156e+00,5.242551803588867188e+00,4.948612213134765625e+00,4.694037914276123047e+00,4.537931919097900391e+00
4.688225269317626953e+00,4.683159828186035156e+00,4.679136276245117188e+00,4.675118446350097656e+00,4.671282291412353516e+00,4.666763782501220703e+00,4.661653995513916016e+00,4.657443046569824219e+00,4.652435779571533203e+00,4.649320125579833984e+00,4.646543025970458984e+00,4.644451141357421875e+00,4.644042968750000000e+00,4.645432949066162109e+00,4.648599147796630859e+00,4.651909351348876953e+00,4.656271457672119141e+00,4.661222457885742188e+00,4.666073799133300781e+00,4.672380447387695312e+00,4.678778648376464844e+00,4.687127113342285156e+00,4.696417808532714844e+00,4.705943107604980469e+00,4.715747833251953125e+00,4.725232124328613281e+00,4.735430717468261719e+00,4.745668888092041016e+00,4.756840229034423828e+00,4.766520977020263672e+00,4.776025772094726562e+00,4.787033557891845703e+00,4.798503398895263672e+00,4.810281276702880859e+00,4.822795391082763672e+00,4.836600303649902344e+00,4.850300312042236328e+00,4.863710403442382812e+00,4.876483917236328125e+00,4.888371467590332031e+00,4.900032997131347656e+00,4.910955429077148438e+00,4.922479152679443359e+00,4.933774471282958984e+00,4.944490909576416016e+00,4.954834461212158203e+00,4.963871479034423828e+00,4.972822189331054688e+00,4.981295585632324219e+00,4.989215850830078125e+00,4.997786045074462891e+00,5.007187366485595703e+00,5.016271591186523438e+00,5.026643753051757812e+00,5.037924766540527344e+00,5.049264430999755859e+00,5.061046600341796875e+00,5.074755191802978516e+00,5.089501380920410156e+00,5.103860378265380859e+00,5.119400501251220703e+00,5.133467197418212891e+00,5.145897865295410156e+00,5.157581329345703125e+00,5.169930458068847656e+00,5.182288646697998047e+00,5.194375514984130859e+00,5.207163810729980469e+00,5.221702098846435547e+00,5.236276626586914062e+00,5.248173713684082031e+00,5.259477138519287109e+00,5.269081592559814453e+00,5.279640674591064453e+00,5.291369438171386719e+00,5.305480957031250000e+00,5.317271232604980469e+00,5.329430580139160156e+00,5.342188835144042969e+00,5.352789878845214844e+00,5.367874622344970703e+00,5.379865169525146484e+00,5.396193027496337891e+00,5.420038223266601562e+00,5.448637008666992188e+00,5.483653545379638672e+00,5.510120391845703125e+00,5.536862373352050781e+00,5.554113388061523438e+00,5.573423385620117188e+00,5.591558456420898438e+00,5.605385780334472656e+00,5.615272998809814453e+00,5.628655433654785156e+00,5.637281417846679688e+00,5.650840282440185547e+00,5.666728496551513672e+00,5.683589935302734375e+00,5.690183639526367188e+00,5.692184925079345703e+00,5.692973613739013672e+00,5.696354866027832031e+00,5.707515239715576172e+00,5.709239006042480469e+00,5.708318710327148438e+00,5.698529720306396484e+00,5.685566902160644531e+00,5.673490524291992188e+00,5.656872749328613281e+00,5.637481212615966797e+00,5.614984512329101562e+00,5.585155010223388672e+00,5.555679798126220703e+00,5.534896850585937500e+00,5.471883773803710938e+00,5.232639312744140625e+00,4.956636905670166016e+00,4.697707653045654297e+00,4.536194324493408203e+00
4.683757305145263672e+00,4.679124355316162109e+00,4.674929141998291016e+00,4.670794010162353516e+00,4.666839122772216797e+00,4.661880493164062500e+00,4.656512260437011719e+00,4.651715278625488281e+00,4.645989894866943359e+00,4.642634391784667969e+00,4.639190196990966797e+00,4.637226581573486328e+00,4.636823177337646484e+00,4.638233184814453125e+00,4.641478061676025391e+00,4.644598484039306641e+00,4.649083137512207031e+00,4.654144763946533203e+00,4.659265041351318359e+00,4.665551185607910156e+00,4.672090530395507812e+00,4.680807113647460938e+00,4.690019130706787109e+00,4.699815750122070312e+00,4.709500789642333984e+00,4.718851089477539062e+00,4.728881359100341797e+00,4.739155292510986328e+00,4.750140190124511719e+00,4.759553909301757812e+00,4.768655300140380859e+00,4.779477596282958984e+00,4.791447162628173828e+00,4.803251743316650391e+00,4.815494537353515625e+00,4.829460620880126953e+00,4.843322277069091797e+00,4.856866359710693359e+00,4.870495796203613281e+00,4.882913112640380859e+00,4.894735813140869141e+00,4.906092643737792969e+00,4.917413234710693359e+00,4.928452014923095703e+00,4.939079761505126953e+00,4.948709011077880859e+00,4.957517147064208984e+00,4.966486930847167969e+00,4.974487304687500000e+00,4.982539176940917969e+00,4.991214752197265625e+00,5.000557422637939453e+00,5.009699821472167969e+00,5.019648551940917969e+00,5.030461311340332031e+00,5.041540622711181641e+00,5.053091526031494141e+00,5.066353797912597656e+00,5.080880165100097656e+00,5.095345973968505859e+00,5.110151290893554688e+00,5.124311923980712891e+00,5.136570930480957031e+00,5.148190498352050781e+00,5.161974430084228516e+00,5.175266742706298828e+00,5.188539028167724609e+00,5.202103137969970703e+00,5.216456413269042969e+00,5.230998516082763672e+00,5.243438720703125000e+00,5.254494190216064453e+00,5.266953945159912109e+00,5.277710437774658203e+00,5.288293838500976562e+00,5.304576873779296875e+00,5.316528320312500000e+00,5.331721305847167969e+00,5.346738815307617188e+00,5.357941150665283203e+00,5.371824741363525391e+00,5.382051467895507812e+00,5.397846698760986328e+00,5.416166305541992188e+00,5.446337699890136719e+00,5.482779979705810547e+00,5.511814117431640625e+00,5.539446353912353516e+00,5.558149337768554688e+00,5.574133872985839844e+00,5.588111400604248047e+00,5.606420993804931641e+00,5.618910312652587891e+00,5.632990837097167969e+00,5.651266098022460938e+00,5.666499614715576172e+00,5.681651592254638672e+00,5.699293136596679688e+00,5.705396652221679688e+00,5.709387302398681641e+00,5.711878776550292969e+00,5.711398124694824219e+00,5.718083381652832031e+00,5.716578960418701172e+00,5.711163997650146484e+00,5.699258327484130859e+00,5.685507774353027344e+00,5.668507099151611328e+00,5.649208545684814453e+00,5.637167453765869141e+00,5.609069347381591797e+00,5.574351310729980469e+00,5.540076255798339844e+00,5.510659217834472656e+00,5.446094989776611328e+00,5.199574470520019531e+00,4.952577590942382812e+00,4.703208446502685547e+00,4.526106357574462891e+00
4.676736354827880859e+00,4.672676563262939453e+00,4.668977260589599609e+00,4.664576530456542969e+00,4.661208629608154297e+00,4.656469821929931641e+00,4.651006698608398438e+00,4.645399093627929688e+00,4.639387607574462891e+00,4.635381698608398438e+00,4.631230354309082031e+00,4.629406929016113281e+00,4.628638267517089844e+00,4.630321502685546875e+00,4.633854389190673828e+00,4.637058734893798828e+00,4.641730785369873047e+00,4.646564483642578125e+00,4.652055740356445312e+00,4.658460140228271484e+00,4.665262222290039062e+00,4.674015045166015625e+00,4.683290481567382812e+00,4.693090915679931641e+00,4.702523231506347656e+00,4.712326526641845703e+00,4.722374916076660156e+00,4.733011245727539062e+00,4.743888378143310547e+00,4.752960681915283203e+00,4.761745452880859375e+00,4.772401809692382812e+00,4.784566879272460938e+00,4.796107769012451172e+00,4.808161735534667969e+00,4.822037220001220703e+00,4.836212158203125000e+00,4.850243568420410156e+00,4.864290237426757812e+00,4.876884937286376953e+00,4.888951301574707031e+00,4.900036811828613281e+00,4.911479473114013672e+00,4.922527313232421875e+00,4.933094501495361328e+00,4.942830085754394531e+00,4.951792716979980469e+00,4.960791587829589844e+00,4.968774795532226562e+00,4.976653575897216797e+00,4.985287666320800781e+00,4.994544506072998047e+00,5.003459930419921875e+00,5.013157844543457031e+00,5.023430347442626953e+00,5.033952236175537109e+00,5.045237541198730469e+00,5.057507991790771484e+00,5.071818351745605469e+00,5.086593151092529297e+00,5.101669311523437500e+00,5.116421699523925781e+00,5.129069805145263672e+00,5.141170024871826172e+00,5.155041694641113281e+00,5.168457031250000000e+00,5.182623386383056641e+00,5.197119712829589844e+00,5.212942123413085938e+00,5.229815006256103516e+00,5.242605209350585938e+00,5.254117012023925781e+00,5.266278743743896484e+00,5.276229858398437500e+00,5.286396980285644531e+00,5.301673412322998047e+00,5.315461635589599609e+00,5.334514617919921875e+00,5.350951671600341797e+00,5.369120597839355469e+00,5.382561206817626953e+00,5.391875743865966797e+00,5.408667087554931641e+00,5.423532009124755859e+00,5.447670459747314453e+00,5.489166259765625000e+00,5.522007465362548828e+00,5.545195102691650391e+00,5.568910121917724609e+00,5.584520339965820312e+00,5.595696449279785156e+00,5.608747005462646484e+00,5.620708465576171875e+00,5.636877536773681641e+00,5.659308433532714844e+00,5.676378726959228516e+00,5.699085235595703125e+00,5.713217735290527344e+00,5.716736316680908203e+00,5.727285385131835938e+00,5.725904464721679688e+00,5.726018905639648438e+00,5.734264373779296875e+00,5.730006217956542969e+00,5.722370624542236328e+00,5.706718921661376953e+00,5.686244487762451172e+00,5.660652637481689453e+00,5.639474868774414062e+00,5.630158901214599609e+00,5.603605747222900391e+00,5.566765308380126953e+00,5.520181655883789062e+00,5.492462158203125000e+00,5.410999298095703125e+00,5.173454761505126953e+00,4.932216644287109375e+00,4.699185848236083984e+00,4.534917831420898438e+00
4.671583652496337891e+00,4.667325973510742188e+00,4.663153648376464844e+00,4.658216476440429688e+00,4.654337882995605469e+00,4.649187088012695312e+00,4.643676280975341797e+00,4.637873649597167969e+00,4.631786346435546875e+00,4.627328395843505859e+00,4.622609138488769531e+00,4.619970321655273438e+00,4.618782997131347656e+00,4.620534896850585938e+00,4.623876571655273438e+00,4.627258300781250000e+00,4.632093429565429688e+00,4.637111663818359375e+00,4.643774032592773438e+00,4.650693893432617188e+00,4.657777786254882812e+00,4.666479110717773438e+00,4.674948692321777344e+00,4.684555053710937500e+00,4.693857192993164062e+00,4.703971385955810547e+00,4.714185237884521484e+00,4.724907398223876953e+00,4.735890388488769531e+00,4.744714736938476562e+00,4.753695487976074219e+00,4.764626979827880859e+00,4.776909828186035156e+00,4.788607597351074219e+00,4.800567150115966797e+00,4.815108776092529297e+00,4.829476356506347656e+00,4.844621658325195312e+00,4.859531402587890625e+00,4.872207641601562500e+00,4.884698390960693359e+00,4.896378993988037109e+00,4.907598972320556641e+00,4.918749332427978516e+00,4.929406166076660156e+00,4.939325332641601562e+00,4.948495864868164062e+00,4.957742214202880859e+00,4.966116428375244141e+00,4.973783016204833984e+00,4.981828689575195312e+00,4.990692615509033203e+00,4.999213695526123047e+00,5.008368492126464844e+00,5.017996311187744141e+00,5.028264045715332031e+00,5.039134979248046875e+00,5.051099777221679688e+00,5.065052032470703125e+00,5.079205989837646484e+00,5.093473434448242188e+00,5.108653068542480469e+00,5.122197151184082031e+00,5.134711742401123047e+00,5.148964405059814453e+00,5.162218570709228516e+00,5.175308704376220703e+00,5.191360950469970703e+00,5.206455230712890625e+00,5.222479343414306641e+00,5.236196517944335938e+00,5.246060371398925781e+00,5.255517959594726562e+00,5.266272068023681641e+00,5.277760028839111328e+00,5.293908596038818359e+00,5.307124137878417969e+00,5.325692176818847656e+00,5.343517303466796875e+00,5.363896369934082031e+00,5.378664493560791016e+00,5.388008594512939453e+00,5.408220767974853516e+00,5.425260066986083984e+00,5.447564601898193359e+00,5.492167472839355469e+00,5.531600475311279297e+00,5.559510707855224609e+00,5.582491874694824219e+00,5.584001064300537109e+00,5.586041450500488281e+00,5.603454589843750000e+00,5.615834236145019531e+00,5.626441001892089844e+00,5.646695613861083984e+00,5.673058986663818359e+00,5.692317962646484375e+00,5.707437515258789062e+00,5.717235565185546875e+00,5.730706214904785156e+00,5.729871273040771484e+00,5.737668037414550781e+00,5.744122505187988281e+00,5.738321304321289062e+00,5.736608505249023438e+00,5.717516899108886719e+00,5.687962532043457031e+00,5.662802696228027344e+00,5.639857769012451172e+00,5.619545936584472656e+00,5.596928596496582031e+00,5.556157112121582031e+00,5.500736713409423828e+00,5.469583511352539062e+00,5.366674423217773438e+00,5.139853477478027344e+00,4.917001247406005859e+00,4.681884288787841797e+00,4.536797523498535156e+00
4.668499946594238281e+00,4.663193225860595703e+00,4.656684398651123047e+00,4.649853706359863281e+00,4.644387245178222656e+00,4.638047695159912109e+00,4.633498668670654297e+00,4.627542018890380859e+00,4.620930671691894531e+00,4.616306304931640625e+00,4.611627578735351562e+00,4.609506607055664062e+00,4.608541488647460938e+00,4.610900402069091797e+00,4.614154815673828125e+00,4.617586135864257812e+00,4.622526645660400391e+00,4.628147125244140625e+00,4.635123252868652344e+00,4.642517089843750000e+00,4.650310039520263672e+00,4.658508300781250000e+00,4.666656017303466797e+00,4.676544189453125000e+00,4.685727596282958984e+00,4.696134567260742188e+00,4.706338405609130859e+00,4.716578483581542969e+00,4.727479457855224609e+00,4.736293315887451172e+00,4.745500564575195312e+00,4.756721973419189453e+00,4.769536972045898438e+00,4.781363010406494141e+00,4.793847084045410156e+00,4.809056282043457031e+00,4.824326992034912109e+00,4.839813232421875000e+00,4.855040073394775391e+00,4.868270874023437500e+00,4.881186962127685547e+00,4.893235683441162109e+00,4.905347347259521484e+00,4.916820049285888672e+00,4.927326679229736328e+00,4.936985492706298828e+00,4.946472644805908203e+00,4.955947875976562500e+00,4.964453697204589844e+00,4.972188949584960938e+00,4.979790210723876953e+00,4.988389492034912109e+00,4.996897697448730469e+00,5.005281448364257812e+00,5.014272689819335938e+00,5.024108409881591797e+00,5.034408569335937500e+00,5.046072483062744141e+00,5.059745311737060547e+00,5.073198795318603516e+00,5.086920738220214844e+00,5.101449489593505859e+00,5.115848541259765625e+00,5.128590583801269531e+00,5.143678665161132812e+00,5.157348632812500000e+00,5.170380115509033203e+00,5.187139511108398438e+00,5.200972080230712891e+00,5.214054584503173828e+00,5.230667114257812500e+00,5.244249343872070312e+00,5.255609512329101562e+00,5.270631313323974609e+00,5.281319618225097656e+00,5.294120311737060547e+00,5.305077552795410156e+00,5.320548057556152344e+00,5.339480400085449219e+00,5.363931655883789062e+00,5.382194042205810547e+00,5.387775897979736328e+00,5.407950401306152344e+00,5.421822547912597656e+00,5.438230037689208984e+00,5.478023052215576172e+00,5.525622367858886719e+00,5.554324150085449219e+00,5.592139244079589844e+00,5.602921962738037109e+00,5.605255603790283203e+00,5.617551803588867188e+00,5.632907867431640625e+00,5.651050567626953125e+00,5.662179470062255859e+00,5.681671142578125000e+00,5.697959423065185547e+00,5.711343765258789062e+00,5.726445198059082031e+00,5.733854293823242188e+00,5.728300571441650391e+00,5.739751815795898438e+00,5.736422061920166016e+00,5.738074779510498047e+00,5.743737697601318359e+00,5.731166839599609375e+00,5.708534717559814453e+00,5.685134887695312500e+00,5.658647537231445312e+00,5.625231266021728516e+00,5.590826988220214844e+00,5.542492866516113281e+00,5.498740673065185547e+00,5.447600841522216797e+00,5.330655574798583984e+00,5.131381988525390625e+00,4.876661777496337891e+00,4.658403396606445312e+00,4.543531417846679688e+00
4.661622524261474609e+00,4.656326770782470703e+00,4.650358200073242188e+00,4.643298149108886719e+00,4.637935638427734375e+00,4.631281852722167969e+00,4.625506401062011719e+00,4.618844509124755859e+00,4.612036228179931641e+00,4.607261180877685547e+00,4.602948665618896484e+00,4.601006507873535156e+00,4.600477695465087891e+00,4.602972507476806641e+00,4.606072902679443359e+00,4.609774112701416016e+00,4.614567756652832031e+00,4.620242118835449219e+00,4.627491474151611328e+00,4.635264396667480469e+00,4.643165111541748047e+00,4.651259899139404297e+00,4.658957004547119141e+00,4.667654991149902344e+00,4.676574230194091797e+00,4.686641216278076172e+00,4.696592807769775391e+00,4.706835746765136719e+00,4.717461109161376953e+00,4.726728916168212891e+00,4.736539363861083984e+00,4.748293876647949219e+00,4.761123657226562500e+00,4.773073673248291016e+00,4.785888195037841797e+00,4.801753044128417969e+00,4.817657947540283203e+00,4.833658218383789062e+00,4.848759651184082031e+00,4.862117290496826172e+00,4.874875068664550781e+00,4.887496948242187500e+00,4.900478363037109375e+00,4.911890983581542969e+00,4.922710418701171875e+00,4.932868480682373047e+00,4.942305088043212891e+00,4.952074050903320312e+00,4.960858821868896484e+00,4.968487739562988281e+00,4.975930690765380859e+00,4.984185218811035156e+00,4.992172241210937500e+00,5.000020027160644531e+00,5.008401870727539062e+00,5.017698287963867188e+00,5.027223587036132812e+00,5.038290500640869141e+00,5.051674365997314453e+00,5.064999580383300781e+00,5.078813076019287109e+00,5.093120098114013672e+00,5.107818603515625000e+00,5.121387481689453125e+00,5.136186599731445312e+00,5.150292873382568359e+00,5.164076328277587891e+00,5.181311607360839844e+00,5.197515487670898438e+00,5.213375091552734375e+00,5.228048324584960938e+00,5.237504482269287109e+00,5.244874954223632812e+00,5.263688564300537109e+00,5.280784130096435547e+00,5.299038887023925781e+00,5.311645507812500000e+00,5.323290824890136719e+00,5.340204238891601562e+00,5.363177299499511719e+00,5.378501415252685547e+00,5.391030311584472656e+00,5.419312953948974609e+00,5.433253765106201172e+00,5.440159320831298828e+00,5.488065242767333984e+00,5.551153659820556641e+00,5.582781314849853516e+00,5.626749038696289062e+00,5.625159740447998047e+00,5.633802890777587891e+00,5.644619941711425781e+00,5.650883674621582031e+00,5.667028903961181641e+00,5.680744647979736328e+00,5.698964118957519531e+00,5.712360858917236328e+00,5.719988346099853516e+00,5.728533744812011719e+00,5.722554206848144531e+00,5.722288131713867188e+00,5.729033946990966797e+00,5.733200073242187500e+00,5.740683078765869141e+00,5.736291885375976562e+00,5.718967914581298828e+00,5.709455490112304688e+00,5.679349899291992188e+00,5.660352230072021484e+00,5.635504722595214844e+00,5.600858688354492188e+00,5.549937248229980469e+00,5.493517398834228516e+00,5.436196804046630859e+00,5.304575920104980469e+00,5.112224102020263672e+00,4.851769924163818359e+00,4.655304431915283203e+00,4.545452117919921875e+00
4.658618927001953125e+00,4.652346611022949219e+00,4.645256519317626953e+00,4.637390613555908203e+00,4.631550788879394531e+00,4.623940467834472656e+00,4.617462158203125000e+00,4.610192775726318359e+00,4.603192329406738281e+00,4.597865104675292969e+00,4.593307971954345703e+00,4.591239452362060547e+00,4.590886116027832031e+00,4.593643665313720703e+00,4.597248077392578125e+00,4.600828170776367188e+00,4.605632305145263672e+00,4.611655235290527344e+00,4.618983268737792969e+00,4.627508163452148438e+00,4.635868549346923828e+00,4.644085884094238281e+00,4.651741504669189453e+00,4.659924983978271484e+00,4.668883800506591797e+00,4.678172588348388672e+00,4.687823295593261719e+00,4.697780132293701172e+00,4.707811355590820312e+00,4.717843532562255859e+00,4.728215217590332031e+00,4.740124702453613281e+00,4.753773212432861328e+00,4.765732288360595703e+00,4.778329372406005859e+00,4.794516563415527344e+00,4.810933113098144531e+00,4.827434539794921875e+00,4.842806816101074219e+00,4.856957912445068359e+00,4.870182514190673828e+00,4.883423328399658203e+00,4.896969795227050781e+00,4.908590316772460938e+00,4.919324398040771484e+00,4.929246425628662109e+00,4.938540458679199219e+00,4.948549747467041016e+00,4.957458972930908203e+00,4.965268611907958984e+00,4.972736358642578125e+00,4.980647563934326172e+00,4.988531112670898438e+00,4.995799541473388672e+00,5.003438949584960938e+00,5.012209892272949219e+00,5.021334648132324219e+00,5.031665802001953125e+00,5.044738292694091797e+00,5.058046817779541016e+00,5.071927070617675781e+00,5.086556911468505859e+00,5.100780010223388672e+00,5.116486072540283203e+00,5.133131504058837891e+00,5.147413253784179688e+00,5.158662796020507812e+00,5.174166202545166016e+00,5.187496185302734375e+00,5.205276012420654297e+00,5.219151020050048828e+00,5.222699165344238281e+00,5.240079402923583984e+00,5.258296966552734375e+00,5.275684356689453125e+00,5.297130584716796875e+00,5.313906192779541016e+00,5.331963062286376953e+00,5.347545623779296875e+00,5.363985538482666016e+00,5.374477386474609375e+00,5.368247032165527344e+00,5.390603542327880859e+00,5.398278236389160156e+00,5.407852649688720703e+00,5.445162773132324219e+00,5.507684230804443359e+00,5.561083316802978516e+00,5.560052394866943359e+00,5.510723114013671875e+00,5.514347553253173828e+00,5.491302967071533203e+00,5.523862361907958984e+00,5.580963134765625000e+00,5.651241302490234375e+00,5.696345806121826172e+00,5.714880943298339844e+00,5.727936267852783203e+00,5.714662075042724609e+00,5.706848621368408203e+00,5.701901435852050781e+00,5.691748619079589844e+00,5.695402145385742188e+00,5.773771762847900391e+00,5.736051082611083984e+00,5.677078723907470703e+00,5.657789230346679688e+00,5.635380268096923828e+00,5.601662635803222656e+00,5.582105159759521484e+00,5.547433376312255859e+00,5.496160507202148438e+00,5.421138763427734375e+00,5.358413219451904297e+00,5.249791145324707031e+00,5.079657077789306641e+00,4.833880424499511719e+00,4.648516654968261719e+00,4.526199340820312500e+00
4.652716159820556641e+00,4.645241260528564453e+00,4.636705875396728516e+00,4.627792835235595703e+00,4.620629310607910156e+00,4.612774848937988281e+00,4.606811523437500000e+00,4.599439144134521484e+00,4.592204570770263672e+00,4.586117744445800781e+00,4.580888271331787109e+00,4.578850269317626953e+00,4.577608585357666016e+00,4.579927444458007812e+00,4.583942890167236328e+00,4.588112831115722656e+00,4.593136787414550781e+00,4.599328517913818359e+00,4.606154918670654297e+00,4.614868164062500000e+00,4.624008655548095703e+00,4.632380485534667969e+00,4.640817165374755859e+00,4.649342536926269531e+00,4.659284591674804688e+00,4.668203830718994141e+00,4.677592277526855469e+00,4.688478946685791016e+00,4.698898792266845703e+00,4.709151744842529297e+00,4.720195770263671875e+00,4.733492851257324219e+00,4.747780323028564453e+00,4.760720729827880859e+00,4.773757457733154297e+00,4.789790630340576172e+00,4.806583881378173828e+00,4.823357105255126953e+00,4.839059352874755859e+00,4.853705883026123047e+00,4.867978096008300781e+00,4.881720066070556641e+00,4.896066665649414062e+00,4.907936573028564453e+00,4.918848037719726562e+00,4.928473949432373047e+00,4.937553882598876953e+00,4.947231292724609375e+00,4.955029487609863281e+00,4.962267398834228516e+00,4.969166755676269531e+00,4.976876735687255859e+00,4.984571933746337891e+00,4.991583347320556641e+00,4.999082565307617188e+00,5.006975173950195312e+00,5.015221118927001953e+00,5.024562358856201172e+00,5.036730289459228516e+00,5.049327850341796875e+00,5.063746929168701172e+00,5.080018997192382812e+00,5.094232082366943359e+00,5.111511707305908203e+00,5.128787040710449219e+00,5.142503738403320312e+00,5.155302524566650391e+00,5.165208339691162109e+00,5.176618099212646484e+00,5.197988986968994141e+00,5.219786167144775391e+00,5.226631641387939453e+00,5.239419937133789062e+00,5.250706672668457031e+00,5.259724140167236328e+00,5.267120838165283203e+00,5.284036159515380859e+00,5.313125133514404297e+00,5.315568447113037109e+00,5.329572677612304688e+00,5.364439487457275391e+00,5.360019683837890625e+00,5.329361438751220703e+00,5.255551815032958984e+00,5.198006153106689453e+00,5.154565811157226562e+00,5.114605903625488281e+00,5.016945362091064453e+00,4.810263156890869141e+00,4.786955356597900391e+00,4.797955513000488281e+00,4.814146041870117188e+00,4.905839443206787109e+00,5.113130569458007812e+00,5.489794254302978516e+00,5.786945343017578125e+00,5.762237548828125000e+00,5.752957820892333984e+00,5.740467071533203125e+00,5.700292587280273438e+00,5.681652069091796875e+00,5.610738754272460938e+00,5.392916202545166016e+00,5.269991874694824219e+00,5.243719577789306641e+00,5.238307952880859375e+00,5.264700412750244141e+00,5.290265083312988281e+00,5.286843299865722656e+00,5.292611598968505859e+00,5.296983718872070312e+00,5.273333549499511719e+00,5.236999511718750000e+00,5.206469535827636719e+00,5.134809017181396484e+00,5.016255378723144531e+00,4.810040473937988281e+00,4.659327507019042969e+00,4.531331062316894531e+00
4.643256187438964844e+00,4.635390758514404297e+00,4.627526283264160156e+00,4.618949413299560547e+00,4.612150669097900391e+00,4.604482650756835938e+00,4.596818923950195312e+00,4.589247226715087891e+00,4.582310676574707031e+00,4.577089309692382812e+00,4.571585655212402344e+00,4.568549156188964844e+00,4.566051483154296875e+00,4.566591262817382812e+00,4.569457530975341797e+00,4.573454380035400391e+00,4.577964305877685547e+00,4.583566665649414062e+00,4.590854644775390625e+00,4.599994659423828125e+00,4.609745502471923828e+00,4.619316577911376953e+00,4.628211498260498047e+00,4.636909008026123047e+00,4.647310256958007812e+00,4.657224178314208984e+00,4.667675971984863281e+00,4.680605888366699219e+00,4.692406177520751953e+00,4.703462600708007812e+00,4.715986728668212891e+00,4.730346679687500000e+00,4.743813037872314453e+00,4.756789684295654297e+00,4.770165920257568359e+00,4.785886287689208984e+00,4.803311824798583984e+00,4.820497512817382812e+00,4.836918830871582031e+00,4.851967811584472656e+00,4.866420269012451172e+00,4.881587982177734375e+00,4.896514892578125000e+00,4.907885551452636719e+00,4.918778896331787109e+00,4.927956104278564453e+00,4.936386585235595703e+00,4.945684432983398438e+00,4.953184604644775391e+00,4.959695816040039062e+00,4.966169357299804688e+00,4.973599433898925781e+00,4.980885028839111328e+00,4.987482070922851562e+00,4.994460582733154297e+00,5.001754760742187500e+00,5.009406566619873047e+00,5.018295764923095703e+00,5.029411792755126953e+00,5.041262149810791016e+00,5.055169582366943359e+00,5.072649478912353516e+00,5.087979316711425781e+00,5.105072498321533203e+00,5.121647834777832031e+00,5.135651111602783203e+00,5.148321151733398438e+00,5.155944824218750000e+00,5.166565418243408203e+00,5.187417984008789062e+00,5.194985389709472656e+00,5.166040420532226562e+00,5.133043289184570312e+00,5.127208232879638672e+00,5.116403102874755859e+00,5.094874382019042969e+00,5.097136020660400391e+00,5.117240428924560547e+00,5.088747978210449219e+00,5.017457485198974609e+00,4.898534774780273438e+00,4.790436267852783203e+00,4.687115669250488281e+00,4.543936729431152344e+00,4.453925132751464844e+00,4.447587490081787109e+00,4.416338443756103516e+00,4.293671131134033203e+00,4.128983974456787109e+00,4.134722709655761719e+00,4.111321926116943359e+00,4.085274696350097656e+00,4.119228363037109375e+00,4.214517116546630859e+00,4.432411670684814453e+00,4.851518630981445312e+00,5.631436824798583984e+00,5.766622543334960938e+00,5.708356857299804688e+00,5.657917022705078125e+00,5.479084014892578125e+00,5.141998767852783203e+00,4.677742481231689453e+00,4.327893733978271484e+00,4.206632137298583984e+00,4.179822921752929688e+00,4.191431999206542969e+00,4.256615161895751953e+00,4.344354152679443359e+00,4.430472850799560547e+00,4.506112575531005859e+00,4.588509559631347656e+00,4.659424304962158203e+00,4.719881057739257812e+00,4.736566543579101562e+00,4.714960098266601562e+00,4.636395931243896484e+00,4.568143844604492188e+00,4.523090839385986328e+00
4.635753631591796875e+00,4.627771377563476562e+00,4.618988513946533203e+00,4.609243392944335938e+00,4.602454662322998047e+00,4.595174789428710938e+00,4.587028026580810547e+00,4.578057765960693359e+00,4.570470809936523438e+00,4.565911769866943359e+00,4.560422897338867188e+00,4.555764198303222656e+00,4.551733493804931641e+00,4.551794528961181641e+00,4.553921699523925781e+00,4.557170391082763672e+00,4.561837673187255859e+00,4.567400932312011719e+00,4.575015068054199219e+00,4.584913730621337891e+00,4.595195770263671875e+00,4.606302261352539062e+00,4.616971492767333984e+00,4.626889705657958984e+00,4.638547897338867188e+00,4.649924755096435547e+00,4.661819458007812500e+00,4.675170898437500000e+00,4.687684535980224609e+00,4.699522018432617188e+00,4.712332725524902344e+00,4.727209091186523438e+00,4.740113735198974609e+00,4.753263950347900391e+00,4.766541957855224609e+00,4.781789779663085938e+00,4.799201488494873047e+00,4.816456317901611328e+00,4.833888530731201172e+00,4.849211215972900391e+00,4.864905357360839844e+00,4.881494522094726562e+00,4.896878242492675781e+00,4.908268928527832031e+00,4.918806076049804688e+00,4.927800178527832031e+00,4.936045646667480469e+00,4.945541858673095703e+00,4.952750205993652344e+00,4.958446502685546875e+00,4.964674472808837891e+00,4.971590995788574219e+00,4.978590488433837891e+00,4.984721183776855469e+00,4.990983486175537109e+00,4.997580528259277344e+00,5.004162788391113281e+00,5.012600898742675781e+00,5.022319316864013672e+00,5.033373355865478516e+00,5.047131538391113281e+00,5.064883232116699219e+00,5.081380844116210938e+00,5.098137855529785156e+00,5.114517211914062500e+00,5.127525806427001953e+00,5.137947559356689453e+00,5.144412994384765625e+00,5.149241924285888672e+00,5.125915527343750000e+00,4.892744064331054688e+00,4.604723453521728516e+00,4.417265415191650391e+00,4.408085823059082031e+00,4.411832332611083984e+00,4.385200023651123047e+00,4.373578548431396484e+00,4.384069442749023438e+00,4.362512588500976562e+00,4.293500900268554688e+00,4.180177688598632812e+00,4.018984317779541016e+00,3.847849845886230469e+00,3.758506536483764648e+00,3.713118314743041992e+00,3.691848039627075195e+00,3.692422389984130859e+00,3.725912570953369141e+00,3.786125421524047852e+00,3.855619430541992188e+00,3.892910242080688477e+00,3.956240177154541016e+00,4.067661285400390625e+00,4.259271144866943359e+00,4.453554153442382812e+00,4.641602039337158203e+00,5.264751434326171875e+00,5.699577808380126953e+00,5.628394126892089844e+00,5.529857158660888672e+00,5.069231986999511719e+00,4.579175472259521484e+00,4.295319080352783203e+00,3.968255043029785156e+00,3.919542789459228516e+00,3.927658081054687500e+00,3.956326246261596680e+00,3.974382400512695312e+00,3.992598772048950195e+00,4.014092445373535156e+00,4.023382663726806641e+00,4.043013095855712891e+00,4.063189029693603516e+00,4.087134361267089844e+00,4.123046398162841797e+00,4.176983833312988281e+00,4.240095138549804688e+00,4.293304920196533203e+00,4.363762378692626953e+00
4.621904850006103516e+00,4.615360736846923828e+00,4.608585357666015625e+00,4.598944664001464844e+00,4.591864585876464844e+00,4.584566116333007812e+00,4.577174663543701172e+00,4.567564010620117188e+00,4.558552265167236328e+00,4.551637649536132812e+00,4.544548988342285156e+00,4.538958072662353516e+00,4.534463405609130859e+00,4.534401893615722656e+00,4.537046432495117188e+00,4.540158271789550781e+00,4.545454025268554688e+00,4.552451133728027344e+00,4.560123920440673828e+00,4.570650100708007812e+00,4.581851005554199219e+00,4.593177318572998047e+00,4.603938102722167969e+00,4.614397525787353516e+00,4.628113269805908203e+00,4.640889167785644531e+00,4.652993202209472656e+00,4.667507171630859375e+00,4.681173324584960938e+00,4.693568706512451172e+00,4.707467079162597656e+00,4.722887992858886719e+00,4.736176013946533203e+00,4.750259399414062500e+00,4.764489173889160156e+00,4.780564785003662109e+00,4.798170089721679688e+00,4.815493106842041016e+00,4.833071708679199219e+00,4.847819805145263672e+00,4.864466667175292969e+00,4.882749080657958984e+00,4.898483753204345703e+00,4.909454822540283203e+00,4.919509887695312500e+00,4.928497791290283203e+00,4.936632156372070312e+00,4.946114063262939453e+00,4.952708244323730469e+00,4.957840442657470703e+00,4.963773250579833984e+00,4.969698905944824219e+00,4.976392269134521484e+00,4.981879234313964844e+00,4.987686157226562500e+00,4.993850708007812500e+00,4.999701499938964844e+00,5.008468151092529297e+00,5.018168926239013672e+00,5.028378963470458984e+00,5.041395664215087891e+00,5.056869029998779297e+00,5.074190139770507812e+00,5.089908599853515625e+00,5.103296279907226562e+00,5.114345550537109375e+00,5.121179103851318359e+00,5.128476619720458984e+00,5.121958732604980469e+00,4.960181236267089844e+00,4.428839683532714844e+00,4.026883602142333984e+00,3.847707509994506836e+00,3.659744977951049805e+00,3.621357917785644531e+00,3.612591028213500977e+00,3.592664241790771484e+00,3.564899921417236328e+00,3.538754224777221680e+00,3.553797006607055664e+00,3.599741220474243164e+00,3.623660326004028320e+00,3.629557609558105469e+00,3.641232252120971680e+00,3.643810510635375977e+00,3.649329900741577148e+00,3.677117347717285156e+00,3.715565681457519531e+00,3.783867835998535156e+00,3.841176033020019531e+00,3.873889684677124023e+00,3.947428703308105469e+00,4.107281684875488281e+00,4.323691844940185547e+00,4.504667758941650391e+00,4.705592632293701172e+00,4.983122348785400391e+00,5.510246753692626953e+00,5.491175651550292969e+00,5.266184806823730469e+00,4.693324089050292969e+00,4.284786224365234375e+00,4.111774921417236328e+00,3.975339889526367188e+00,3.975550651550292969e+00,3.982158899307250977e+00,3.988501548767089844e+00,3.997756958007812500e+00,4.009745597839355469e+00,4.029658794403076172e+00,4.046987533569335938e+00,4.069401264190673828e+00,4.088943004608154297e+00,4.109426498413085938e+00,4.141488552093505859e+00,4.184813022613525391e+00,4.212174892425537109e+00,4.244680404663085938e+00,4.287584781646728516e+00
4.600665092468261719e+00,4.596936225891113281e+00,4.592690944671630859e+00,4.585870742797851562e+00,4.579343318939208984e+00,4.572427272796630859e+00,4.563932895660400391e+00,4.551766872406005859e+00,4.539672374725341797e+00,4.528309822082519531e+00,4.519383430480957031e+00,4.513811588287353516e+00,4.510076999664306641e+00,4.511407375335693359e+00,4.515070915222167969e+00,4.518816947937011719e+00,4.524523258209228516e+00,4.531301975250244141e+00,4.538657665252685547e+00,4.548985481262207031e+00,4.559443950653076172e+00,4.570555210113525391e+00,4.581466197967529297e+00,4.592527866363525391e+00,4.607492446899414062e+00,4.622999668121337891e+00,4.637538433074951172e+00,4.654937744140625000e+00,4.673167705535888672e+00,4.687747001647949219e+00,4.703438758850097656e+00,4.720539093017578125e+00,4.734725475311279297e+00,4.748147487640380859e+00,4.760912418365478516e+00,4.777127742767333984e+00,4.795663356781005859e+00,4.813665866851806641e+00,4.831223964691162109e+00,4.846727848052978516e+00,4.863142490386962891e+00,4.882236957550048828e+00,4.899647712707519531e+00,4.911128997802734375e+00,4.919844150543212891e+00,4.929080009460449219e+00,4.936645984649658203e+00,4.945683479309082031e+00,4.953301429748535156e+00,4.958737373352050781e+00,4.964454174041748047e+00,4.969608306884765625e+00,4.975938796997070312e+00,4.981022357940673828e+00,4.986330032348632812e+00,4.991993427276611328e+00,4.996878623962402344e+00,5.004237174987792969e+00,5.013100624084472656e+00,5.023293972015380859e+00,5.035727500915527344e+00,5.050053119659423828e+00,5.065879344940185547e+00,5.080716133117675781e+00,5.092489719390869141e+00,5.099882125854492188e+00,5.100315093994140625e+00,5.109576225280761719e+00,5.112555027008056641e+00,4.879601955413818359e+00,4.354864120483398438e+00,4.018411636352539062e+00,3.730499267578125000e+00,3.529890060424804688e+00,3.505767107009887695e+00,3.507908344268798828e+00,3.512367010116577148e+00,3.522927761077880859e+00,3.550993680953979492e+00,3.594929218292236328e+00,3.630040168762207031e+00,3.658038377761840820e+00,3.673628568649291992e+00,3.686706542968750000e+00,3.684194326400756836e+00,3.686141967773437500e+00,3.702326059341430664e+00,3.732876062393188477e+00,3.785312414169311523e+00,3.821441650390625000e+00,3.856394052505493164e+00,3.924306631088256836e+00,4.154950141906738281e+00,4.392009258270263672e+00,4.582765102386474609e+00,4.755302906036376953e+00,4.922865390777587891e+00,5.246453762054443359e+00,5.241624355316162109e+00,4.917936801910400391e+00,4.440712928771972656e+00,4.168417453765869141e+00,4.020056247711181641e+00,4.001739978790283203e+00,4.011398315429687500e+00,4.013102531433105469e+00,4.012538909912109375e+00,4.015306472778320312e+00,4.027151584625244141e+00,4.049323558807373047e+00,4.064560413360595703e+00,4.079885482788085938e+00,4.092454433441162109e+00,4.109950065612792969e+00,4.139785766601562500e+00,4.176336765289306641e+00,4.211961269378662109e+00,4.241138935089111328e+00,4.261576652526855469e+00
4.577202796936035156e+00,4.574112415313720703e+00,4.570786952972412109e+00,4.568429946899414062e+00,4.563701152801513672e+00,4.554686069488525391e+00,4.544481277465820312e+00,4.527851581573486328e+00,4.509561061859130859e+00,4.493592739105224609e+00,4.483165264129638672e+00,4.475707530975341797e+00,4.474543571472167969e+00,4.480777740478515625e+00,4.486972808837890625e+00,4.493250846862792969e+00,4.497761726379394531e+00,4.507400035858154297e+00,4.517233848571777344e+00,4.528245449066162109e+00,4.539320468902587891e+00,4.549299240112304688e+00,4.561194419860839844e+00,4.574773788452148438e+00,4.589732170104980469e+00,4.604906558990478516e+00,4.621442794799804688e+00,4.641363143920898438e+00,4.661320686340332031e+00,4.677473545074462891e+00,4.692977428436279297e+00,4.711830615997314453e+00,4.728486537933349609e+00,4.743336200714111328e+00,4.756813526153564453e+00,4.774087905883789062e+00,4.793387413024902344e+00,4.811599731445312500e+00,4.828621387481689453e+00,4.844182014465332031e+00,4.861349582672119141e+00,4.880465030670166016e+00,4.899953842163085938e+00,4.911700248718261719e+00,4.920194625854492188e+00,4.928782463073730469e+00,4.935826301574707031e+00,4.945060253143310547e+00,4.953936100006103516e+00,4.960136890411376953e+00,4.965458393096923828e+00,4.970237255096435547e+00,4.975424289703369141e+00,4.979769706726074219e+00,4.985185623168945312e+00,4.989799022674560547e+00,4.994434833526611328e+00,4.999963283538818359e+00,5.007743358612060547e+00,5.018055915832519531e+00,5.029736995697021484e+00,5.042204380035400391e+00,5.054904937744140625e+00,5.066588878631591797e+00,5.074282646179199219e+00,5.080208301544189453e+00,5.080736637115478516e+00,5.085313796997070312e+00,5.075310707092285156e+00,4.912615776062011719e+00,4.506811618804931641e+00,4.164234161376953125e+00,3.801913499832153320e+00,3.544140577316284180e+00,3.533554792404174805e+00,3.530561447143554688e+00,3.543763399124145508e+00,3.557122707366943359e+00,3.589337825775146484e+00,3.622571468353271484e+00,3.653751134872436523e+00,3.667233943939208984e+00,3.681444168090820312e+00,3.688652276992797852e+00,3.692695856094360352e+00,3.705265522003173828e+00,3.719671726226806641e+00,3.747965812683105469e+00,3.780013322830200195e+00,3.822111845016479492e+00,3.835257053375244141e+00,3.851594924926757812e+00,3.953997850418090820e+00,4.333696842193603516e+00,4.624341964721679688e+00,4.794209003448486328e+00,4.958693027496337891e+00,5.113551616668701172e+00,4.983552455902099609e+00,4.586608409881591797e+00,4.281739711761474609e+00,4.083034038543701172e+00,4.012565135955810547e+00,4.024012565612792969e+00,4.020700454711914062e+00,4.033212661743164062e+00,4.033098697662353516e+00,4.041739940643310547e+00,4.052861213684082031e+00,4.071780204772949219e+00,4.085072517395019531e+00,4.095282077789306641e+00,4.107897281646728516e+00,4.126517772674560547e+00,4.152681350708007812e+00,4.184307098388671875e+00,4.212712287902832031e+00,4.243127346038818359e+00,4.254477024078369141e+00
4.559710025787353516e+00,4.550087451934814453e+00,4.542179107666015625e+00,4.537640571594238281e+00,4.532097816467285156e+00,4.522879600524902344e+00,4.509561538696289062e+00,4.489677906036376953e+00,4.467784881591796875e+00,4.449622154235839844e+00,4.436876773834228516e+00,4.436007499694824219e+00,4.436313629150390625e+00,4.436532497406005859e+00,4.443263053894042969e+00,4.437491416931152344e+00,4.438683509826660156e+00,4.449107646942138672e+00,4.463604927062988281e+00,4.476319789886474609e+00,4.487937450408935547e+00,4.499098300933837891e+00,4.510794162750244141e+00,4.529488086700439453e+00,4.542617321014404297e+00,4.566392898559570312e+00,4.589221000671386719e+00,4.616185188293457031e+00,4.641419887542724609e+00,4.661521434783935547e+00,4.681775093078613281e+00,4.702503204345703125e+00,4.722233772277832031e+00,4.740066528320312500e+00,4.756273269653320312e+00,4.774799823760986328e+00,4.791380405426025391e+00,4.810586452484130859e+00,4.828580856323242188e+00,4.844069004058837891e+00,4.860482215881347656e+00,4.878571987152099609e+00,4.898182392120361328e+00,4.911615371704101562e+00,4.920742988586425781e+00,4.928618907928466797e+00,4.935384750366210938e+00,4.945292949676513672e+00,4.954633235931396484e+00,4.960976600646972656e+00,4.966404914855957031e+00,4.970533370971679688e+00,4.974775791168212891e+00,4.978611469268798828e+00,4.983491420745849609e+00,4.987172126770019531e+00,4.992220401763916016e+00,4.997538566589355469e+00,5.005272865295410156e+00,5.015530586242675781e+00,5.024964809417724609e+00,5.034618377685546875e+00,5.042855262756347656e+00,5.050218105316162109e+00,5.054524421691894531e+00,5.060944080352783203e+00,5.066852569580078125e+00,5.068750381469726562e+00,5.062841892242431641e+00,4.984292507171630859e+00,4.709531784057617188e+00,4.301021575927734375e+00,3.909666776657104492e+00,3.546310424804687500e+00,3.542357206344604492e+00,3.534852981567382812e+00,3.546425819396972656e+00,3.568793296813964844e+00,3.593330144882202148e+00,3.621678352355957031e+00,3.649409294128417969e+00,3.673145771026611328e+00,3.692319393157958984e+00,3.705595016479492188e+00,3.711000919342041016e+00,3.723256826400756836e+00,3.733345985412597656e+00,3.752924203872680664e+00,3.777881383895874023e+00,3.802759408950805664e+00,3.807547092437744141e+00,3.816223144531250000e+00,3.842201471328735352e+00,4.060019493103027344e+00,4.532659530639648438e+00,4.757161140441894531e+00,4.870038986206054688e+00,4.953384399414062500e+00,4.648422718048095703e+00,4.333954334259033203e+00,4.184608936309814453e+00,4.027463912963867188e+00,4.003453254699707031e+00,4.007049083709716797e+00,4.018188953399658203e+00,4.033579826354980469e+00,4.041175365447998047e+00,4.054828643798828125e+00,4.065714836120605469e+00,4.079552173614501953e+00,4.090373039245605469e+00,4.099950790405273438e+00,4.112330436706542969e+00,4.131432533264160156e+00,4.154992580413818359e+00,4.181322097778320312e+00,4.205382823944091797e+00,4.230801582336425781e+00,4.236750602722167969e+00
4.524092197418212891e+00,4.500930786132812500e+00,4.475891590118408203e+00,4.457992553710937500e+00,4.457134246826171875e+00,4.460518836975097656e+00,4.454823017120361328e+00,4.445497989654541016e+00,4.430848598480224609e+00,4.405593395233154297e+00,4.392831802368164062e+00,4.385673046112060547e+00,4.360836982727050781e+00,4.345224380493164062e+00,4.327379703521728516e+00,4.305453300476074219e+00,4.304860115051269531e+00,4.318153858184814453e+00,4.329492092132568359e+00,4.345719814300537109e+00,4.366744518280029297e+00,4.382844924926757812e+00,4.399405002593994141e+00,4.429064273834228516e+00,4.470036506652832031e+00,4.509803295135498047e+00,4.539602756500244141e+00,4.580962657928466797e+00,4.618585586547851562e+00,4.647493839263916016e+00,4.673403263092041016e+00,4.694630622863769531e+00,4.716756820678710938e+00,4.737116813659667969e+00,4.753986358642578125e+00,4.773868560791015625e+00,4.790399074554443359e+00,4.809309482574462891e+00,4.829772472381591797e+00,4.846673488616943359e+00,4.861652374267578125e+00,4.880018711090087891e+00,4.899463653564453125e+00,4.913144588470458984e+00,4.921833515167236328e+00,4.929560661315917969e+00,4.938020229339599609e+00,4.947661876678466797e+00,4.957066059112548828e+00,4.962559223175048828e+00,4.967397689819335938e+00,4.971253871917724609e+00,4.973865985870361328e+00,4.977910041809082031e+00,4.981838226318359375e+00,4.984776020050048828e+00,4.990334033966064453e+00,4.994960308074951172e+00,5.001964092254638672e+00,5.012483596801757812e+00,5.021215438842773438e+00,5.028363704681396484e+00,5.032435894012451172e+00,5.037991523742675781e+00,5.041920185089111328e+00,5.043024063110351562e+00,5.044893264770507812e+00,5.050622463226318359e+00,5.040458202362060547e+00,4.998919010162353516e+00,4.873698711395263672e+00,4.479182720184326172e+00,4.084089279174804688e+00,3.581718206405639648e+00,3.538862228393554688e+00,3.537126541137695312e+00,3.542323589324951172e+00,3.564279079437255859e+00,3.590521812438964844e+00,3.619123458862304688e+00,3.648220777511596680e+00,3.674862623214721680e+00,3.695717811584472656e+00,3.713927507400512695e+00,3.722959518432617188e+00,3.733251333236694336e+00,3.743372917175292969e+00,3.755720138549804688e+00,3.776925563812255859e+00,3.794600725173950195e+00,3.798950910568237305e+00,3.803165197372436523e+00,3.804537296295166016e+00,3.858943462371826172e+00,4.164248466491699219e+00,4.635450363159179688e+00,4.763560771942138672e+00,4.757526874542236328e+00,4.449177742004394531e+00,4.189741611480712891e+00,4.082123279571533203e+00,4.015372276306152344e+00,4.012137889862060547e+00,4.013086318969726562e+00,4.021011352539062500e+00,4.035433769226074219e+00,4.040108680725097656e+00,4.054959297180175781e+00,4.067516326904296875e+00,4.080358982086181641e+00,4.093879222869873047e+00,4.106055259704589844e+00,4.119060516357421875e+00,4.135296821594238281e+00,4.153202533721923828e+00,4.177296161651611328e+00,4.200794219970703125e+00,4.215316772460937500e+00,4.218462467193603516e+00
4.399798393249511719e+00,4.393986225128173828e+00,4.366221427917480469e+00,4.344936370849609375e+00,4.346945762634277344e+00,4.351628303527832031e+00,4.350350856781005859e+00,4.343754768371582031e+00,4.337454319000244141e+00,4.325562000274658203e+00,4.300513267517089844e+00,4.269103527069091797e+00,4.246538639068603516e+00,4.231323719024658203e+00,4.194607734680175781e+00,4.172779560089111328e+00,4.180407524108886719e+00,4.189341545104980469e+00,4.180256843566894531e+00,4.191072940826416016e+00,4.217600822448730469e+00,4.248757839202880859e+00,4.282220840454101562e+00,4.331167221069335938e+00,4.383239746093750000e+00,4.430674552917480469e+00,4.476203441619873047e+00,4.524452686309814453e+00,4.573961257934570312e+00,4.618124961853027344e+00,4.655125141143798828e+00,4.682383537292480469e+00,4.712903022766113281e+00,4.736197948455810547e+00,4.754813671112060547e+00,4.777855873107910156e+00,4.793971538543701172e+00,4.810877799987792969e+00,4.830362319946289062e+00,4.847100257873535156e+00,4.863179206848144531e+00,4.882121562957763672e+00,4.900387763977050781e+00,4.913652896881103516e+00,4.923407554626464844e+00,4.932174205780029297e+00,4.940975189208984375e+00,4.951336860656738281e+00,4.960876464843750000e+00,4.966711997985839844e+00,4.972000598907470703e+00,4.975466251373291016e+00,4.977468490600585938e+00,4.980998992919921875e+00,4.984978199005126953e+00,4.988073825836181641e+00,4.992399215698242188e+00,4.996582508087158203e+00,5.002796173095703125e+00,5.012993812561035156e+00,5.021534442901611328e+00,5.027463912963867188e+00,5.030211925506591797e+00,5.032573223114013672e+00,5.033682346343994141e+00,5.033198833465576172e+00,5.034293651580810547e+00,5.028826713562011719e+00,5.017835617065429688e+00,4.995740413665771484e+00,4.900753974914550781e+00,4.661749362945556641e+00,4.220321655273437500e+00,3.685675621032714844e+00,3.531845808029174805e+00,3.517922401428222656e+00,3.511834621429443359e+00,3.537998676300048828e+00,3.576030254364013672e+00,3.614473342895507812e+00,3.648817062377929688e+00,3.674099683761596680e+00,3.690413713455200195e+00,3.711043596267700195e+00,3.728229284286499023e+00,3.742739200592041016e+00,3.756715774536132812e+00,3.769935846328735352e+00,3.788056135177612305e+00,3.799347639083862305e+00,3.802324771881103516e+00,3.809290170669555664e+00,3.798191547393798828e+00,3.800377130508422852e+00,3.904794931411743164e+00,4.301420688629150391e+00,4.576203823089599609e+00,4.473179340362548828e+00,4.266241550445556641e+00,4.086750984191894531e+00,4.013104438781738281e+00,3.992969989776611328e+00,4.009282112121582031e+00,4.020460605621337891e+00,4.031893253326416016e+00,4.046509265899658203e+00,4.055936336517333984e+00,4.070815563201904297e+00,4.084362030029296875e+00,4.095674991607666016e+00,4.108102321624755859e+00,4.119087696075439453e+00,4.129318714141845703e+00,4.149340152740478516e+00,4.164738178253173828e+00,4.178619861602783203e+00,4.198439121246337891e+00,4.198816299438476562e+00,4.198384284973144531e+00
4.173943042755126953e+00,4.217451572418212891e+00,4.225375175476074219e+00,4.218955516815185547e+00,4.218675136566162109e+00,4.223438739776611328e+00,4.217160224914550781e+00,4.210222244262695312e+00,4.206392288208007812e+00,4.197925567626953125e+00,4.170945644378662109e+00,4.148908138275146484e+00,4.129294872283935547e+00,4.102892875671386719e+00,4.084075927734375000e+00,4.075269699096679688e+00,4.061941146850585938e+00,4.057301521301269531e+00,4.064524650573730469e+00,4.080299854278564453e+00,4.098552227020263672e+00,4.124296665191650391e+00,4.159768104553222656e+00,4.207575798034667969e+00,4.260955810546875000e+00,4.308992862701416016e+00,4.384706497192382812e+00,4.456656932830810547e+00,4.522127151489257812e+00,4.584188938140869141e+00,4.636025428771972656e+00,4.674161434173583984e+00,4.708198070526123047e+00,4.738045692443847656e+00,4.759786605834960938e+00,4.779607772827148438e+00,4.793805599212646484e+00,4.812865734100341797e+00,4.832411289215087891e+00,4.851590633392333984e+00,4.867600917816162109e+00,4.884741306304931641e+00,4.902215003967285156e+00,4.915290355682373047e+00,4.926515579223632812e+00,4.935693264007568359e+00,4.943883895874023438e+00,4.954282760620117188e+00,4.963295459747314453e+00,4.969387054443359375e+00,4.974495410919189453e+00,4.977761268615722656e+00,4.980092048645019531e+00,4.983646392822265625e+00,4.988043785095214844e+00,4.990967273712158203e+00,4.994199752807617188e+00,4.997992992401123047e+00,5.003930091857910156e+00,5.012290477752685547e+00,5.019799709320068359e+00,5.025221347808837891e+00,5.026092529296875000e+00,5.027152538299560547e+00,5.026781082153320312e+00,5.024407386779785156e+00,5.030144214630126953e+00,5.022583484649658203e+00,5.010712146759033203e+00,4.991254329681396484e+00,4.906208515167236328e+00,4.760596275329589844e+00,4.270018100738525391e+00,3.795206308364868164e+00,3.516477108001708984e+00,3.493895769119262695e+00,3.492962121963500977e+00,3.520438194274902344e+00,3.566964626312255859e+00,3.610336303710937500e+00,3.646580696105957031e+00,3.669476985931396484e+00,3.689097881317138672e+00,3.711935997009277344e+00,3.732806921005249023e+00,3.749492168426513672e+00,3.767868757247924805e+00,3.780370473861694336e+00,3.795300245285034180e+00,3.805900812149047852e+00,3.810413837432861328e+00,3.804372549057006836e+00,3.805432796478271484e+00,3.797564029693603516e+00,3.858419179916381836e+00,4.023023605346679688e+00,4.281378269195556641e+00,4.262612819671630859e+00,4.143969058990478516e+00,4.038330078125000000e+00,4.015554904937744141e+00,3.993518590927124023e+00,4.015348911285400391e+00,4.026159763336181641e+00,4.042869091033935547e+00,4.061152458190917969e+00,4.073245048522949219e+00,4.087737560272216797e+00,4.099980354309082031e+00,4.109202861785888672e+00,4.121008872985839844e+00,4.129597663879394531e+00,4.140149116516113281e+00,4.160618782043457031e+00,4.166643142700195312e+00,4.177912712097167969e+00,4.190699577331542969e+00,4.183618545532226562e+00,4.178100109100341797e+00
4.087136268615722656e+00,4.105125904083251953e+00,4.132297992706298828e+00,4.135826587677001953e+00,4.121140956878662109e+00,4.110877513885498047e+00,4.095884799957275391e+00,4.080641269683837891e+00,4.068827629089355469e+00,4.074633121490478516e+00,4.067060947418212891e+00,4.071232318878173828e+00,4.062810897827148438e+00,4.053042411804199219e+00,4.045708179473876953e+00,4.033802509307861328e+00,4.024426937103271484e+00,4.026059627532958984e+00,4.030667781829833984e+00,4.037139415740966797e+00,4.048919200897216797e+00,4.065337657928466797e+00,4.088764190673828125e+00,4.116108894348144531e+00,4.149480819702148438e+00,4.194789409637451172e+00,4.254359722137451172e+00,4.336563587188720703e+00,4.420272827148437500e+00,4.518241405487060547e+00,4.612844467163085938e+00,4.662582397460937500e+00,4.705044746398925781e+00,4.732131958007812500e+00,4.760918140411376953e+00,4.784700870513916016e+00,4.799177169799804688e+00,4.818915843963623047e+00,4.839567661285400391e+00,4.859226703643798828e+00,4.873435020446777344e+00,4.889731407165527344e+00,4.906412124633789062e+00,4.916756629943847656e+00,4.928578376770019531e+00,4.937756538391113281e+00,4.946392059326171875e+00,4.957024097442626953e+00,4.964693546295166016e+00,4.970818996429443359e+00,4.975206851959228516e+00,4.978422164916992188e+00,4.980353355407714844e+00,4.982977390289306641e+00,4.986636161804199219e+00,4.989561557769775391e+00,4.993371486663818359e+00,4.996033191680908203e+00,5.002041816711425781e+00,5.009036064147949219e+00,5.014678478240966797e+00,5.017933845520019531e+00,5.017178535461425781e+00,5.016882419586181641e+00,5.015446186065673828e+00,5.011339187622070312e+00,5.015848159790039062e+00,5.003444671630859375e+00,4.993680000305175781e+00,4.980849742889404297e+00,4.925619125366210938e+00,4.779772758483886719e+00,4.390226840972900391e+00,3.962016105651855469e+00,3.578021764755249023e+00,3.493398427963256836e+00,3.490914344787597656e+00,3.508879423141479492e+00,3.557375431060791016e+00,3.610814094543457031e+00,3.641020536422729492e+00,3.666104078292846680e+00,3.689370155334472656e+00,3.714630126953125000e+00,3.737654447555541992e+00,3.755574941635131836e+00,3.777273654937744141e+00,3.791167497634887695e+00,3.804581403732299805e+00,3.814163923263549805e+00,3.817894935607910156e+00,3.813363075256347656e+00,3.815829515457153320e+00,3.820915460586547852e+00,3.860839843750000000e+00,3.932553768157958984e+00,4.006665706634521484e+00,4.062804698944091797e+00,4.047646045684814453e+00,4.014032363891601562e+00,3.999329328536987305e+00,3.999069929122924805e+00,4.025535106658935547e+00,4.037412643432617188e+00,4.054190635681152344e+00,4.072843074798583984e+00,4.086328506469726562e+00,4.099973678588867188e+00,4.109961509704589844e+00,4.118423938751220703e+00,4.133446693420410156e+00,4.142855167388916016e+00,4.151317596435546875e+00,4.166739940643310547e+00,4.176527500152587891e+00,4.183229923248291016e+00,4.182606220245361328e+00,4.174894809722900391e+00,4.158163070678710938e+00
4.060530185699462891e+00,4.075041294097900391e+00,4.083114624023437500e+00,4.078759670257568359e+00,4.073264598846435547e+00,4.062750339508056641e+00,4.050500392913818359e+00,4.034448146820068359e+00,4.014011383056640625e+00,4.011538028717041016e+00,4.009496688842773438e+00,4.014988422393798828e+00,4.023121833801269531e+00,4.019102573394775391e+00,4.013072967529296875e+00,4.006476879119873047e+00,4.000440597534179688e+00,4.000252723693847656e+00,3.999841928482055664e+00,4.005114555358886719e+00,4.010332584381103516e+00,4.020030498504638672e+00,4.034029006958007812e+00,4.048603057861328125e+00,4.068475246429443359e+00,4.094194889068603516e+00,4.132106781005859375e+00,4.180912494659423828e+00,4.242782592773437500e+00,4.352993965148925781e+00,4.505538940429687500e+00,4.619655132293701172e+00,4.679451465606689453e+00,4.717208862304687500e+00,4.754062652587890625e+00,4.784361362457275391e+00,4.802050113677978516e+00,4.822839260101318359e+00,4.844305992126464844e+00,4.865055084228515625e+00,4.879081249237060547e+00,4.895281314849853516e+00,4.910713672637939453e+00,4.921545028686523438e+00,4.933054924011230469e+00,4.940720081329345703e+00,4.949531078338623047e+00,4.959728240966796875e+00,4.967004299163818359e+00,4.973611354827880859e+00,4.977587223052978516e+00,4.980220794677734375e+00,4.982465744018554688e+00,4.984567165374755859e+00,4.987990856170654297e+00,4.990972518920898438e+00,4.993375778198242188e+00,4.995869159698486328e+00,4.999291419982910156e+00,5.006258010864257812e+00,5.010913848876953125e+00,5.011982917785644531e+00,5.011295318603515625e+00,5.008815765380859375e+00,5.005593299865722656e+00,5.003443717956542969e+00,5.006034374237060547e+00,4.989486217498779297e+00,4.979740142822265625e+00,4.969601631164550781e+00,4.930092334747314453e+00,4.796148300170898438e+00,4.538342952728271484e+00,4.101343154907226562e+00,3.686751127243041992e+00,3.469769954681396484e+00,3.486892700195312500e+00,3.508646249771118164e+00,3.548076868057250977e+00,3.599699735641479492e+00,3.633665084838867188e+00,3.659641742706298828e+00,3.684821128845214844e+00,3.716521501541137695e+00,3.742047786712646484e+00,3.761813879013061523e+00,3.782539129257202148e+00,3.801409959793090820e+00,3.818022966384887695e+00,3.829249858856201172e+00,3.835762977600097656e+00,3.833257436752319336e+00,3.833465576171875000e+00,3.841434240341186523e+00,3.866108417510986328e+00,3.910297870635986328e+00,3.927335739135742188e+00,3.972931623458862305e+00,3.995581150054931641e+00,3.996636867523193359e+00,3.996994018554687500e+00,4.012307643890380859e+00,4.028684139251708984e+00,4.046061992645263672e+00,4.063064575195312500e+00,4.082086563110351562e+00,4.098310947418212891e+00,4.111567497253417969e+00,4.121222972869873047e+00,4.129351615905761719e+00,4.139652252197265625e+00,4.149978160858154297e+00,4.156328678131103516e+00,4.167256355285644531e+00,4.174673080444335938e+00,4.176568031311035156e+00,4.172085762023925781e+00,4.163701057434082031e+00,4.139441013336181641e+00
4.015210151672363281e+00,4.030614852905273438e+00,4.042145252227783203e+00,4.044581413269042969e+00,4.037099838256835938e+00,4.029712677001953125e+00,4.020172595977783203e+00,3.999522686004638672e+00,3.985268592834472656e+00,3.979236364364624023e+00,3.977610588073730469e+00,3.977280378341674805e+00,3.982987165451049805e+00,3.984654426574707031e+00,3.984099149703979492e+00,3.980503559112548828e+00,3.976279973983764648e+00,3.976202964782714844e+00,3.976083993911743164e+00,3.977509260177612305e+00,3.979838848114013672e+00,3.981391668319702148e+00,3.987709283828735352e+00,3.994581937789916992e+00,4.004986763000488281e+00,4.014349460601806641e+00,4.020445346832275391e+00,4.039924144744873047e+00,4.066076755523681641e+00,4.162242889404296875e+00,4.331032752990722656e+00,4.496601104736328125e+00,4.605067729949951172e+00,4.676253795623779297e+00,4.738460063934326172e+00,4.776737689971923828e+00,4.807305335998535156e+00,4.829574108123779297e+00,4.849175453186035156e+00,4.868246078491210938e+00,4.882472991943359375e+00,4.899601459503173828e+00,4.914368152618408203e+00,4.925120353698730469e+00,4.934299468994140625e+00,4.941942691802978516e+00,4.949027538299560547e+00,4.958890438079833984e+00,4.966307163238525391e+00,4.972534179687500000e+00,4.975958347320556641e+00,4.978308677673339844e+00,4.980756759643554688e+00,4.982193470001220703e+00,4.986576080322265625e+00,4.988477230072021484e+00,4.990794658660888672e+00,4.993068695068359375e+00,4.995098114013671875e+00,5.001865386962890625e+00,5.006114482879638672e+00,5.005013465881347656e+00,5.002829551696777344e+00,4.999485969543457031e+00,4.995607852935791016e+00,4.995337963104248047e+00,5.003060340881347656e+00,4.987433433532714844e+00,4.974330425262451172e+00,4.954795360565185547e+00,4.889665603637695312e+00,4.796115875244140625e+00,4.632766246795654297e+00,4.210186958312988281e+00,3.834412813186645508e+00,3.488892793655395508e+00,3.475540876388549805e+00,3.504746675491333008e+00,3.535861730575561523e+00,3.581432580947875977e+00,3.618934392929077148e+00,3.649787664413452148e+00,3.680425405502319336e+00,3.710671424865722656e+00,3.739784479141235352e+00,3.765856981277465820e+00,3.788493633270263672e+00,3.807972431182861328e+00,3.827768564224243164e+00,3.837608098983764648e+00,3.846390485763549805e+00,3.844739437103271484e+00,3.848145246505737305e+00,3.851788282394409180e+00,3.871903657913208008e+00,3.898647546768188477e+00,3.927097082138061523e+00,3.958346605300903320e+00,3.979281663894653320e+00,3.986718654632568359e+00,3.993906974792480469e+00,4.010015964508056641e+00,4.025152683258056641e+00,4.047731876373291016e+00,4.068619251251220703e+00,4.087513923645019531e+00,4.102560520172119141e+00,4.115990638732910156e+00,4.127210140228271484e+00,4.132648468017578125e+00,4.141847610473632812e+00,4.153095245361328125e+00,4.163015365600585938e+00,4.171380996704101562e+00,4.176928043365478516e+00,4.174156665802001953e+00,4.163549423217773438e+00,4.161302566528320312e+00,4.131505012512207031e+00
3.950909376144409180e+00,3.980446815490722656e+00,4.001850605010986328e+00,4.005770683288574219e+00,3.996565580368041992e+00,3.987037897109985352e+00,3.975493192672729492e+00,3.962421178817749023e+00,3.955568790435791016e+00,3.951551437377929688e+00,3.949567317962646484e+00,3.950131893157958984e+00,3.951071739196777344e+00,3.954324245452880859e+00,3.956048011779785156e+00,3.956005811691284180e+00,3.954234123229980469e+00,3.956391096115112305e+00,3.959034919738769531e+00,3.959262609481811523e+00,3.957124710083007812e+00,3.950988054275512695e+00,3.952994346618652344e+00,3.952177047729492188e+00,3.950697660446166992e+00,3.947240591049194336e+00,3.925215959548950195e+00,3.907289981842041016e+00,3.916159152984619141e+00,3.987103223800659180e+00,4.190067291259765625e+00,4.387786865234375000e+00,4.464002132415771484e+00,4.554901599884033203e+00,4.665103912353515625e+00,4.748518466949462891e+00,4.794923782348632812e+00,4.832954883575439453e+00,4.856212139129638672e+00,4.873217582702636719e+00,4.887458324432373047e+00,4.903263568878173828e+00,4.917049407958984375e+00,4.928348541259765625e+00,4.937375545501708984e+00,4.945889949798583984e+00,4.952385425567626953e+00,4.960081100463867188e+00,4.966881275177001953e+00,4.972586154937744141e+00,4.975895404815673828e+00,4.977831840515136719e+00,4.979187011718750000e+00,4.982356548309326172e+00,4.984969615936279297e+00,4.987116813659667969e+00,4.988776206970214844e+00,4.991147994995117188e+00,4.993284225463867188e+00,4.998350620269775391e+00,5.000586986541748047e+00,4.997073173522949219e+00,4.992588043212890625e+00,4.987890243530273438e+00,4.984457492828369141e+00,4.987461090087890625e+00,4.994160175323486328e+00,4.985720157623291016e+00,4.963839530944824219e+00,4.927241325378417969e+00,4.887283802032470703e+00,4.817826747894287109e+00,4.626169204711914062e+00,4.291068553924560547e+00,3.922603845596313477e+00,3.539986610412597656e+00,3.466650485992431641e+00,3.488310575485229492e+00,3.516578912734985352e+00,3.559143066406250000e+00,3.599390268325805664e+00,3.636788368225097656e+00,3.671867609024047852e+00,3.706278085708618164e+00,3.736375808715820312e+00,3.766680240631103516e+00,3.791970252990722656e+00,3.812300920486450195e+00,3.832064867019653320e+00,3.845111131668090820e+00,3.850378990173339844e+00,3.851738214492797852e+00,3.856857299804687500e+00,3.863435745239257812e+00,3.874197483062744141e+00,3.893060207366943359e+00,3.912141084671020508e+00,3.938379526138305664e+00,3.961843967437744141e+00,3.976238489151000977e+00,3.996846914291381836e+00,4.009537220001220703e+00,4.033010959625244141e+00,4.056735038757324219e+00,4.078275203704833984e+00,4.096259593963623047e+00,4.112210273742675781e+00,4.126826763153076172e+00,4.137237548828125000e+00,4.143187046051025391e+00,4.152389526367187500e+00,4.164118766784667969e+00,4.178214073181152344e+00,4.184186935424804688e+00,4.185570240020751953e+00,4.176853179931640625e+00,4.156699657440185547e+00,4.155561923980712891e+00,4.117871284484863281e+00
3.878540039062500000e+00,3.894411563873291016e+00,3.924432277679443359e+00,3.941036939620971680e+00,3.948808670043945312e+00,3.936480045318603516e+00,3.928868293762207031e+00,3.924097299575805664e+00,3.924135684967041016e+00,3.924380540847778320e+00,3.921887874603271484e+00,3.923795223236083984e+00,3.922412157058715820e+00,3.926221370697021484e+00,3.923140764236450195e+00,3.925321578979492188e+00,3.922363996505737305e+00,3.926320791244506836e+00,3.926198005676269531e+00,3.923298358917236328e+00,3.910745143890380859e+00,3.906182765960693359e+00,3.895246028900146484e+00,3.890335083007812500e+00,3.875616550445556641e+00,3.842100143432617188e+00,3.797365188598632812e+00,3.772854566574096680e+00,3.791159152984619141e+00,3.861906051635742188e+00,3.961957931518554688e+00,4.118732929229736328e+00,4.228179931640625000e+00,4.363571643829345703e+00,4.510902881622314453e+00,4.661150455474853516e+00,4.763079643249511719e+00,4.831559658050537109e+00,4.858230590820312500e+00,4.875292301177978516e+00,4.891667366027832031e+00,4.907283306121826172e+00,4.920495510101318359e+00,4.932451725006103516e+00,4.942228794097900391e+00,4.950156211853027344e+00,4.956545352935791016e+00,4.962227344512939453e+00,4.967483520507812500e+00,4.972204208374023438e+00,4.974791049957275391e+00,4.977181434631347656e+00,4.977628231048583984e+00,4.980903148651123047e+00,4.984198570251464844e+00,4.986187934875488281e+00,4.987987518310546875e+00,4.989249229431152344e+00,4.991041183471679688e+00,4.993868827819824219e+00,4.994509696960449219e+00,4.989569187164306641e+00,4.983697414398193359e+00,4.977653980255126953e+00,4.970746040344238281e+00,4.976528167724609375e+00,4.989814281463623047e+00,4.983838558197021484e+00,4.957827091217041016e+00,4.907466888427734375e+00,4.880320549011230469e+00,4.760923862457275391e+00,4.498620510101318359e+00,4.153501987457275391e+00,3.841647863388061523e+00,3.546976327896118164e+00,3.449525117874145508e+00,3.454301834106445312e+00,3.484130144119262695e+00,3.524029493331909180e+00,3.566478967666625977e+00,3.618880033493041992e+00,3.666839599609375000e+00,3.707441329956054688e+00,3.735277175903320312e+00,3.764523267745971680e+00,3.791569232940673828e+00,3.814667940139770508e+00,3.831450700759887695e+00,3.845227003097534180e+00,3.846452713012695312e+00,3.853653669357299805e+00,3.860656738281250000e+00,3.867196559906005859e+00,3.874260187149047852e+00,3.889667272567749023e+00,3.911299467086791992e+00,3.932172298431396484e+00,3.952324867248535156e+00,3.967584133148193359e+00,3.999774694442749023e+00,4.020156383514404297e+00,4.044766426086425781e+00,4.070065498352050781e+00,4.088941097259521484e+00,4.105357170104980469e+00,4.120520591735839844e+00,4.132654190063476562e+00,4.143197059631347656e+00,4.149354934692382812e+00,4.157921791076660156e+00,4.168012142181396484e+00,4.180684089660644531e+00,4.183955192565917969e+00,4.185394287109375000e+00,4.173007965087890625e+00,4.150135517120361328e+00,4.142437934875488281e+00,4.092265129089355469e+00
3.814357995986938477e+00,3.815238714218139648e+00,3.824039936065673828e+00,3.837896108627319336e+00,3.853561401367187500e+00,3.862638473510742188e+00,3.861833572387695312e+00,3.866490364074707031e+00,3.872368097305297852e+00,3.876427650451660156e+00,3.879992008209228516e+00,3.883265972137451172e+00,3.889180183410644531e+00,3.895800113677978516e+00,3.888370990753173828e+00,3.873702287673950195e+00,3.869594812393188477e+00,3.860645055770874023e+00,3.846083402633666992e+00,3.843846321105957031e+00,3.831543684005737305e+00,3.828300714492797852e+00,3.810453414916992188e+00,3.791223049163818359e+00,3.771125555038452148e+00,3.722664117813110352e+00,3.692011833190917969e+00,3.683358192443847656e+00,3.721687078475952148e+00,3.858840227127075195e+00,3.979185104370117188e+00,4.080704212188720703e+00,4.158111572265625000e+00,4.282881259918212891e+00,4.443158626556396484e+00,4.614121913909912109e+00,4.748064994812011719e+00,4.826453208923339844e+00,4.857146739959716797e+00,4.877602577209472656e+00,4.894319534301757812e+00,4.909881114959716797e+00,4.921820163726806641e+00,4.933526992797851562e+00,4.942518711090087891e+00,4.951134681701660156e+00,4.958387374877929688e+00,4.963665008544921875e+00,4.968647956848144531e+00,4.973562240600585938e+00,4.975799560546875000e+00,4.977453708648681641e+00,4.977188110351562500e+00,4.981393814086914062e+00,4.984431266784667969e+00,4.985900878906250000e+00,4.987551689147949219e+00,4.986919403076171875e+00,4.987108707427978516e+00,4.988807201385498047e+00,4.988082885742187500e+00,4.982011318206787109e+00,4.973118305206298828e+00,4.961218357086181641e+00,4.952905654907226562e+00,4.953336238861083984e+00,4.961153030395507812e+00,4.942117214202880859e+00,4.930935859680175781e+00,4.895762443542480469e+00,4.729962825775146484e+00,4.406093120574951172e+00,4.112969398498535156e+00,3.846546649932861328e+00,3.675949096679687500e+00,3.481722354888916016e+00,3.399689912796020508e+00,3.405782461166381836e+00,3.426812171936035156e+00,3.446404457092285156e+00,3.481774806976318359e+00,3.547354698181152344e+00,3.616715669631958008e+00,3.673787117004394531e+00,3.706538200378417969e+00,3.746414184570312500e+00,3.785959482192993164e+00,3.812913179397583008e+00,3.831979990005493164e+00,3.845587730407714844e+00,3.844974994659423828e+00,3.849658727645874023e+00,3.851341485977172852e+00,3.857245445251464844e+00,3.862605571746826172e+00,3.883458852767944336e+00,3.909067392349243164e+00,3.931700468063354492e+00,3.948645591735839844e+00,3.966060161590576172e+00,3.992278337478637695e+00,4.019831657409667969e+00,4.051989078521728516e+00,4.076169490814208984e+00,4.096474647521972656e+00,4.113698959350585938e+00,4.127199649810791016e+00,4.139762401580810547e+00,4.150057315826416016e+00,4.156960010528564453e+00,4.163927555084228516e+00,4.174970149993896484e+00,4.188083648681640625e+00,4.190245151519775391e+00,4.188223838806152344e+00,4.173974514007568359e+00,4.149012565612792969e+00,4.132797718048095703e+00,4.067417621612548828e+00
3.749276161193847656e+00,3.733195781707763672e+00,3.740183830261230469e+00,3.757714271545410156e+00,3.773278713226318359e+00,3.783666372299194336e+00,3.775252103805541992e+00,3.775278329849243164e+00,3.792722702026367188e+00,3.797913312911987305e+00,3.798842191696166992e+00,3.799063205718994141e+00,3.818991184234619141e+00,3.834299325942993164e+00,3.818118333816528320e+00,3.761266469955444336e+00,3.726843357086181641e+00,3.698642015457153320e+00,3.676975727081298828e+00,3.673799514770507812e+00,3.664496421813964844e+00,3.659191370010375977e+00,3.668817758560180664e+00,3.680721521377563477e+00,3.655572414398193359e+00,3.625725030899047852e+00,3.606312274932861328e+00,3.605686664581298828e+00,3.677152156829833984e+00,3.818283796310424805e+00,3.951262712478637695e+00,4.075372695922851562e+00,4.170201301574707031e+00,4.275739192962646484e+00,4.460011482238769531e+00,4.648461341857910156e+00,4.780063629150390625e+00,4.833163261413574219e+00,4.849577426910400391e+00,4.873327255249023438e+00,4.892517566680908203e+00,4.907071590423583984e+00,4.920286655426025391e+00,4.931710243225097656e+00,4.943650722503662109e+00,4.952261447906494141e+00,4.958938598632812500e+00,4.963686466217041016e+00,4.967100620269775391e+00,4.972144126892089844e+00,4.974967479705810547e+00,4.976427078247070312e+00,4.977528572082519531e+00,4.981635093688964844e+00,4.984439849853515625e+00,4.985516548156738281e+00,4.986777782440185547e+00,4.985479354858398438e+00,4.983989715576171875e+00,4.984128952026367188e+00,4.981109142303466797e+00,4.973073959350585938e+00,4.959320068359375000e+00,4.938190937042236328e+00,4.921314239501953125e+00,4.907533645629882812e+00,4.890509128570556641e+00,4.863832950592041016e+00,4.840034008026123047e+00,4.786414623260498047e+00,4.623726367950439453e+00,4.318181037902832031e+00,3.957643985748291016e+00,3.654506206512451172e+00,3.530887365341186523e+00,3.422447443008422852e+00,3.362099647521972656e+00,3.356657743453979492e+00,3.349837064743041992e+00,3.366565465927124023e+00,3.390405893325805664e+00,3.439296245574951172e+00,3.488424062728881836e+00,3.550609111785888672e+00,3.595162868499755859e+00,3.625705480575561523e+00,3.671370744705200195e+00,3.728413105010986328e+00,3.775790929794311523e+00,3.808371067047119141e+00,3.817463397979736328e+00,3.816649675369262695e+00,3.817089796066284180e+00,3.836237192153930664e+00,3.857315778732299805e+00,3.880969762802124023e+00,3.904906511306762695e+00,3.918039560317993164e+00,3.936112642288208008e+00,3.956466674804687500e+00,3.985041618347167969e+00,4.015928268432617188e+00,4.045769214630126953e+00,4.074863433837890625e+00,4.096292018890380859e+00,4.116779804229736328e+00,4.133120059967041016e+00,4.142857551574707031e+00,4.151075363159179688e+00,4.161617279052734375e+00,4.174070358276367188e+00,4.187208175659179688e+00,4.200359344482421875e+00,4.200700759887695312e+00,4.196602821350097656e+00,4.177215099334716797e+00,4.145708560943603516e+00,4.120483875274658203e+00,4.044876098632812500e+00
3.647540330886840820e+00,3.648873805999755859e+00,3.668149471282958984e+00,3.685197830200195312e+00,3.696486234664916992e+00,3.699940681457519531e+00,3.697644710540771484e+00,3.693263053894042969e+00,3.698854923248291016e+00,3.702707529067993164e+00,3.695983171463012695e+00,3.688029289245605469e+00,3.717149734497070312e+00,3.701020002365112305e+00,3.621138811111450195e+00,3.544807672500610352e+00,3.495764732360839844e+00,3.459005117416381836e+00,3.419097900390625000e+00,3.408878803253173828e+00,3.451723098754882812e+00,3.520697593688964844e+00,3.553691387176513672e+00,3.571016788482666016e+00,3.570355892181396484e+00,3.537519454956054688e+00,3.516743659973144531e+00,3.541264533996582031e+00,3.657944440841674805e+00,3.817000150680541992e+00,3.981162071228027344e+00,4.125253677368164062e+00,4.225860595703125000e+00,4.348948478698730469e+00,4.551590442657470703e+00,4.727020263671875000e+00,4.804821968078613281e+00,4.837435245513916016e+00,4.844401359558105469e+00,4.866165637969970703e+00,4.889735698699951172e+00,4.904793739318847656e+00,4.918804168701171875e+00,4.932154655456542969e+00,4.945490837097167969e+00,4.953922748565673828e+00,4.960351943969726562e+00,4.964900970458984375e+00,4.968462944030761719e+00,4.973897933959960938e+00,4.976732254028320312e+00,4.979270458221435547e+00,4.981031417846679688e+00,4.984928607940673828e+00,4.988135337829589844e+00,4.988506317138671875e+00,4.988974094390869141e+00,4.987226963043212891e+00,4.984804153442382812e+00,4.983304023742675781e+00,4.977802276611328125e+00,4.967851638793945312e+00,4.949972152709960938e+00,4.925012588500976562e+00,4.904352188110351562e+00,4.882586479187011719e+00,4.859126567840576172e+00,4.819832324981689453e+00,4.755822181701660156e+00,4.709953784942626953e+00,4.600283622741699219e+00,4.419444561004638672e+00,3.721625328063964844e+00,3.457676410675048828e+00,3.389441013336181641e+00,3.321091890335083008e+00,3.305997848510742188e+00,3.282920598983764648e+00,3.287674665451049805e+00,3.307341337203979492e+00,3.320159196853637695e+00,3.326323270797729492e+00,3.331745624542236328e+00,3.345824480056762695e+00,3.399730205535888672e+00,3.461417913436889648e+00,3.529654502868652344e+00,3.607303380966186523e+00,3.682786226272583008e+00,3.752689123153686523e+00,3.784795522689819336e+00,3.789284706115722656e+00,3.794955968856811523e+00,3.822674036026000977e+00,3.852147817611694336e+00,3.868837833404541016e+00,3.891015052795410156e+00,3.905513286590576172e+00,3.910537719726562500e+00,3.933390617370605469e+00,3.969440937042236328e+00,4.004747867584228516e+00,4.037669658660888672e+00,4.070858001708984375e+00,4.094665527343750000e+00,4.116369247436523438e+00,4.138744354248046875e+00,4.145462036132812500e+00,4.154640674591064453e+00,4.169948577880859375e+00,4.182891368865966797e+00,4.191457748413085938e+00,4.202558517456054688e+00,4.200532913208007812e+00,4.193734645843505859e+00,4.172420501708984375e+00,4.138299942016601562e+00,4.106020927429199219e+00,4.026762008666992188e+00
