5.200213432312011719e+00,5.218011379241943359e+00,5.235713005065917969e+00,5.254338264465332031e+00,5.273304462432861328e+00,5.291730880737304688e+00,5.310133457183837891e+00,5.330437183380126953e+00,5.350657939910888672e+00,5.369094371795654297e+00,5.387869834899902344e+00,5.405194282531738281e+00,5.422524929046630859e+00,5.441544055938720703e+00,5.459616661071777344e+00,5.476911544799804688e+00,5.494432926177978516e+00,5.509424209594726562e+00,5.524085044860839844e+00,5.538279533386230469e+00,5.552329540252685547e+00,5.567406177520751953e+00,5.582307815551757812e+00,5.597510814666748047e+00,5.612058162689208984e+00,5.627602577209472656e+00,5.643380165100097656e+00,5.658345222473144531e+00,5.673007965087890625e+00,5.685906887054443359e+00,5.698757171630859375e+00,5.710883617401123047e+00,5.722079277038574219e+00,5.733239650726318359e+00,5.743831157684326172e+00,5.753716468811035156e+00,5.763693809509277344e+00,5.773245334625244141e+00,5.783624649047851562e+00,5.794334888458251953e+00,5.804436206817626953e+00,5.814437389373779297e+00,5.823671340942382812e+00,5.833782196044921875e+00,5.844056606292724609e+00,5.853474617004394531e+00,5.863769531250000000e+00,5.871893405914306641e+00,5.878777027130126953e+00,5.886154651641845703e+00,5.891798019409179688e+00,5.901605606079101562e+00,5.908713340759277344e+00,5.918872833251953125e+00,5.929055213928222656e+00,5.936594963073730469e+00,5.943178653717041016e+00,5.947003841400146484e+00,5.950538158416748047e+00,5.954257011413574219e+00,5.957118511199951172e+00,5.960968494415283203e+00,5.964403152465820312e+00,5.968141555786132812e+00,5.972036361694335938e+00,5.975071907043457031e+00,5.978857994079589844e+00,5.981867790222167969e+00,5.984252452850341797e+00,5.986779212951660156e+00,5.989017486572265625e+00,5.990897655487060547e+00,5.992825508117675781e+00,5.995187759399414062e+00,5.997969150543212891e+00,5.999413967132568359e+00,6.001500129699707031e+00,6.002800941467285156e+00,6.004260063171386719e+00,6.005809783935546875e+00,6.006803989410400391e+00,6.008036613464355469e+00,6.009401321411132812e+00,6.010787487030029297e+00,6.012564659118652344e+00,6.013436794281005859e+00,6.013944625854492188e+00,6.014180183410644531e+00,6.014489650726318359e+00,6.014738082885742188e+00,6.015920639038085938e+00,6.016528129577636719e+00,6.016459941864013672e+00,6.015717983245849609e+00,6.013479709625244141e+00,6.012478828430175781e+00,6.011345863342285156e+00,6.009838104248046875e+00,6.008597850799560547e+00,6.006676197052001953e+00,6.005272865295410156e+00,6.002739906311035156e+00,6.001279354095458984e+00,5.999154090881347656e+00,5.997688770294189453e+00,5.996623992919921875e+00,5.995241165161132812e+00,5.994029521942138672e+00,5.992782115936279297e+00,5.991084575653076172e+00,5.989489078521728516e+00,5.988192081451416016e+00,5.986975193023681641e+00,5.986077785491943359e+00,5.985507965087890625e+00,5.984736442565917969e+00,5.984319686889648438e+00,5.982772350311279297e+00,5.981903076171875000e+00
5.208826065063476562e+00,5.226338386535644531e+00,5.243763923645019531e+00,5.262537956237792969e+00,5.281069755554199219e+00,5.299370288848876953e+00,5.318134784698486328e+00,5.338453769683837891e+00,5.358847141265869141e+00,5.377885818481445312e+00,5.396294116973876953e+00,5.413696765899658203e+00,5.430568695068359375e+00,5.447578907012939453e+00,5.465148925781250000e+00,5.481014251708984375e+00,5.497375965118408203e+00,5.512313842773437500e+00,5.526864051818847656e+00,5.541580200195312500e+00,5.555736064910888672e+00,5.570906162261962891e+00,5.585909366607666016e+00,5.600801944732666016e+00,5.615510463714599609e+00,5.630645275115966797e+00,5.646198272705078125e+00,5.661440372467041016e+00,5.676197528839111328e+00,5.689431190490722656e+00,5.702347278594970703e+00,5.714395046234130859e+00,5.725378036499023438e+00,5.736543178558349609e+00,5.747220516204833984e+00,5.757541656494140625e+00,5.767754554748535156e+00,5.777459621429443359e+00,5.787697315216064453e+00,5.798069000244140625e+00,5.808070182800292969e+00,5.817700386047363281e+00,5.827003955841064453e+00,5.836856842041015625e+00,5.847059726715087891e+00,5.856464862823486328e+00,5.866469860076904297e+00,5.874398231506347656e+00,5.882048130035400391e+00,5.890295028686523438e+00,5.896616935729980469e+00,5.905463695526123047e+00,5.914251327514648438e+00,5.922822952270507812e+00,5.931006431579589844e+00,5.939555644989013672e+00,5.946002960205078125e+00,5.949938774108886719e+00,5.953786849975585938e+00,5.957975864410400391e+00,5.961137771606445312e+00,5.965089321136474609e+00,5.968418121337890625e+00,5.971991062164306641e+00,5.975985050201416016e+00,5.979424476623535156e+00,5.983326435089111328e+00,5.986675262451171875e+00,5.989425659179687500e+00,5.991774082183837891e+00,5.993712902069091797e+00,5.995986461639404297e+00,5.997861862182617188e+00,6.000192642211914062e+00,6.003040790557861328e+00,6.004824638366699219e+00,6.007052421569824219e+00,6.009022712707519531e+00,6.010087966918945312e+00,6.011613368988037109e+00,6.012823581695556641e+00,6.014201164245605469e+00,6.015933036804199219e+00,6.017500400543212891e+00,6.018756866455078125e+00,6.019369125366210938e+00,6.020061016082763672e+00,6.020467758178710938e+00,6.020407676696777344e+00,6.020454883575439453e+00,6.021024227142333984e+00,6.021486759185791016e+00,6.021813869476318359e+00,6.021575450897216797e+00,6.019919872283935547e+00,6.019041538238525391e+00,6.017587661743164062e+00,6.015564441680908203e+00,6.014970302581787109e+00,6.013728618621826172e+00,6.012623786926269531e+00,6.009956836700439453e+00,6.007701873779296875e+00,6.005995273590087891e+00,6.004708766937255859e+00,6.003576278686523438e+00,6.002423763275146484e+00,6.001047134399414062e+00,5.999592781066894531e+00,5.998155117034912109e+00,5.996512413024902344e+00,5.995258808135986328e+00,5.994362831115722656e+00,5.993141651153564453e+00,5.992257118225097656e+00,5.991192817687988281e+00,5.990631580352783203e+00,5.988988876342773438e+00,5.988165378570556641e+00
5.216464042663574219e+00,5.234269618988037109e+00,5.251846790313720703e+00,5.270861148834228516e+00,5.289848804473876953e+00,5.308269500732421875e+00,5.327410221099853516e+00,5.347479820251464844e+00,5.367551803588867188e+00,5.386656284332275391e+00,5.405319213867187500e+00,5.421687126159667969e+00,5.437648773193359375e+00,5.453858852386474609e+00,5.469352245330810547e+00,5.484841823577880859e+00,5.500732421875000000e+00,5.515119552612304688e+00,5.529639720916748047e+00,5.543956756591796875e+00,5.558312416076660156e+00,5.573525428771972656e+00,5.588267326354980469e+00,5.602971076965332031e+00,5.617165088653564453e+00,5.632257461547851562e+00,5.647463798522949219e+00,5.662623882293701172e+00,5.677536487579345703e+00,5.691014289855957031e+00,5.704130172729492188e+00,5.715915679931640625e+00,5.726902484893798828e+00,5.738525867462158203e+00,5.749667167663574219e+00,5.760317325592041016e+00,5.770759105682373047e+00,5.780671596527099609e+00,5.790952205657958984e+00,5.800829887390136719e+00,5.810474395751953125e+00,5.819653987884521484e+00,5.828388214111328125e+00,5.838488101959228516e+00,5.848272323608398438e+00,5.857393264770507812e+00,5.867396354675292969e+00,5.875735282897949219e+00,5.883473396301269531e+00,5.891110420227050781e+00,5.898474216461181641e+00,5.906589984893798828e+00,5.913970470428466797e+00,5.923624038696289062e+00,5.931714534759521484e+00,5.938992500305175781e+00,5.945445060729980469e+00,5.950017929077148438e+00,5.954535007476806641e+00,5.958896636962890625e+00,5.962580680847167969e+00,5.966555118560791016e+00,5.969967842102050781e+00,5.973514556884765625e+00,5.977678775787353516e+00,5.981096744537353516e+00,5.985480785369873047e+00,5.988446712493896484e+00,5.991333484649658203e+00,5.994083881378173828e+00,5.996156215667724609e+00,5.998259067535400391e+00,5.999967575073242188e+00,6.002058506011962891e+00,6.004744052886962891e+00,6.006777286529541016e+00,6.009205341339111328e+00,6.011168003082275391e+00,6.012537956237792969e+00,6.013966560363769531e+00,6.015402317047119141e+00,6.016801357269287109e+00,6.018593788146972656e+00,6.020271778106689453e+00,6.021553516387939453e+00,6.021868228912353516e+00,6.022386074066162109e+00,6.022908210754394531e+00,6.022888660430908203e+00,6.023167133331298828e+00,6.023836135864257812e+00,6.024034023284912109e+00,6.024273872375488281e+00,6.024261474609375000e+00,6.023086547851562500e+00,6.021939277648925781e+00,6.020573139190673828e+00,6.018735885620117188e+00,6.017946243286132812e+00,6.017115592956542969e+00,6.015816688537597656e+00,6.013334751129150391e+00,6.011430263519287109e+00,6.009922981262207031e+00,6.009088039398193359e+00,6.008405208587646484e+00,6.007256984710693359e+00,6.005887985229492188e+00,6.004525184631347656e+00,6.002639770507812500e+00,6.001298427581787109e+00,6.000030517578125000e+00,5.998929977416992188e+00,5.998035907745361328e+00,5.996752738952636719e+00,5.995794296264648438e+00,5.995114326477050781e+00,5.993689060211181641e+00,5.993290901184082031e+00
5.223567485809326172e+00,5.241261005401611328e+00,5.258935451507568359e+00,5.278043746948242188e+00,5.297008514404296875e+00,5.316079616546630859e+00,5.335634231567382812e+00,5.355834484100341797e+00,5.375438690185546875e+00,5.393973827362060547e+00,5.412404060363769531e+00,5.428153038024902344e+00,5.443662643432617188e+00,5.458705425262451172e+00,5.473217010498046875e+00,5.488497734069824219e+00,5.504024028778076172e+00,5.518260478973388672e+00,5.532812118530273438e+00,5.547121524810791016e+00,5.561837673187255859e+00,5.576724052429199219e+00,5.591195106506347656e+00,5.605906486511230469e+00,5.619973182678222656e+00,5.634834766387939453e+00,5.649758815765380859e+00,5.664447784423828125e+00,5.679137706756591797e+00,5.692786216735839844e+00,5.706133365631103516e+00,5.718052864074707031e+00,5.729275703430175781e+00,5.741128444671630859e+00,5.752644062042236328e+00,5.763549804687500000e+00,5.774093627929687500e+00,5.784426212310791016e+00,5.794748306274414062e+00,5.804003238677978516e+00,5.813286781311035156e+00,5.822155952453613281e+00,5.830579757690429688e+00,5.840829372406005859e+00,5.850442409515380859e+00,5.859229564666748047e+00,5.869108200073242188e+00,5.877605438232421875e+00,5.885383129119873047e+00,5.893321514129638672e+00,5.899674892425537109e+00,5.906552314758300781e+00,5.914646148681640625e+00,5.922423839569091797e+00,5.930526256561279297e+00,5.938522815704345703e+00,5.944750308990478516e+00,5.950396060943603516e+00,5.955111503601074219e+00,5.959971904754638672e+00,5.964161872863769531e+00,5.968261241912841797e+00,5.971631050109863281e+00,5.975229263305664062e+00,5.979220390319824219e+00,5.982966423034667969e+00,5.987366199493408203e+00,5.990417957305908203e+00,5.993075370788574219e+00,5.995729923248291016e+00,5.997974395751953125e+00,5.999698638916015625e+00,6.001442432403564453e+00,6.003781795501708984e+00,6.006097316741943359e+00,6.008405208587646484e+00,6.010578632354736328e+00,6.012268066406250000e+00,6.014057159423828125e+00,6.015973091125488281e+00,6.017729282379150391e+00,6.019015312194824219e+00,6.020789146423339844e+00,6.022559165954589844e+00,6.023756027221679688e+00,6.024281024932861328e+00,6.024529933929443359e+00,6.025051116943359375e+00,6.025207519531250000e+00,6.025381565093994141e+00,6.026167392730712891e+00,6.026632308959960938e+00,6.026549816131591797e+00,6.026354312896728516e+00,6.025439262390136719e+00,6.024237155914306641e+00,6.023018836975097656e+00,6.021586894989013672e+00,6.020123958587646484e+00,6.018925666809082031e+00,6.018160343170166016e+00,6.016623497009277344e+00,6.015164375305175781e+00,6.013885974884033203e+00,6.012994289398193359e+00,6.012460708618164062e+00,6.011897087097167969e+00,6.011088371276855469e+00,6.009710311889648438e+00,6.007755756378173828e+00,6.006142616271972656e+00,6.004595279693603516e+00,6.003122329711914062e+00,6.002215385437011719e+00,6.001456737518310547e+00,6.000427722930908203e+00,5.999877452850341797e+00,5.998814582824707031e+00,5.998755931854248047e+00
5.227415084838867188e+00,5.245296001434326172e+00,5.263125419616699219e+00,5.282473087310791016e+00,5.301444053649902344e+00,5.321226596832275391e+00,5.340742111206054688e+00,5.360510826110839844e+00,5.379777431488037109e+00,5.397497177124023438e+00,5.415514945983886719e+00,5.431153774261474609e+00,5.446480274200439453e+00,5.460647583007812500e+00,5.474535465240478516e+00,5.489790439605712891e+00,5.505149364471435547e+00,5.519612312316894531e+00,5.533968448638916016e+00,5.548020839691162109e+00,5.562197208404541016e+00,5.576570987701416016e+00,5.590783596038818359e+00,5.605421543121337891e+00,5.619560718536376953e+00,5.634556770324707031e+00,5.649395942687988281e+00,5.664298057556152344e+00,5.679174900054931641e+00,5.692827701568603516e+00,5.706726074218750000e+00,5.718835830688476562e+00,5.730106353759765625e+00,5.742248058319091797e+00,5.753906726837158203e+00,5.765648365020751953e+00,5.776513099670410156e+00,5.787030220031738281e+00,5.797685623168945312e+00,5.807022571563720703e+00,5.816331863403320312e+00,5.825191020965576172e+00,5.833433151245117188e+00,5.843523979187011719e+00,5.852795600891113281e+00,5.861803054809570312e+00,5.870943546295166016e+00,5.879409313201904297e+00,5.886903285980224609e+00,5.893823146820068359e+00,5.900494575500488281e+00,5.907256603240966797e+00,5.915063381195068359e+00,5.923015117645263672e+00,5.930615425109863281e+00,5.937820434570312500e+00,5.944649219512939453e+00,5.950341224670410156e+00,5.955849170684814453e+00,5.961050510406494141e+00,5.965569496154785156e+00,5.969900608062744141e+00,5.972963809967041016e+00,5.976658344268798828e+00,5.980386734008789062e+00,5.983905792236328125e+00,5.988452911376953125e+00,5.991261482238769531e+00,5.994031906127929688e+00,5.996481418609619141e+00,5.998568058013916016e+00,6.000283718109130859e+00,6.002022266387939453e+00,6.004527568817138672e+00,6.006753444671630859e+00,6.008882522583007812e+00,6.010872840881347656e+00,6.012753963470458984e+00,6.014788627624511719e+00,6.017214298248291016e+00,6.019331455230712891e+00,6.020874500274658203e+00,6.023056030273437500e+00,6.025058746337890625e+00,6.026249885559082031e+00,6.027056217193603516e+00,6.027425765991210938e+00,6.027939319610595703e+00,6.028226852416992188e+00,6.028377056121826172e+00,6.028985500335693359e+00,6.029462337493896484e+00,6.029625415802001953e+00,6.029560089111328125e+00,6.028614521026611328e+00,6.027396202087402344e+00,6.026282787322998047e+00,6.024443149566650391e+00,6.023191928863525391e+00,6.021857261657714844e+00,6.021107196807861328e+00,6.020159244537353516e+00,6.019011974334716797e+00,6.017916679382324219e+00,6.017121791839599609e+00,6.016676425933837891e+00,6.015816211700439453e+00,6.015438079833984375e+00,6.014290332794189453e+00,6.012368202209472656e+00,6.010715484619140625e+00,6.008841514587402344e+00,6.007188320159912109e+00,6.006199836730957031e+00,6.005466461181640625e+00,6.004547119140625000e+00,6.004040718078613281e+00,6.003306865692138672e+00,6.003494739532470703e+00
5.230399608612060547e+00,5.248528957366943359e+00,5.266145706176757812e+00,5.285211086273193359e+00,5.304674625396728516e+00,5.323989868164062500e+00,5.343680858612060547e+00,5.363472461700439453e+00,5.381905078887939453e+00,5.398852348327636719e+00,5.416666030883789062e+00,5.432298660278320312e+00,5.447517871856689453e+00,5.462337017059326172e+00,5.476828098297119141e+00,5.491612434387207031e+00,5.507066726684570312e+00,5.521306991577148438e+00,5.535439491271972656e+00,5.548531532287597656e+00,5.562644004821777344e+00,5.576750278472900391e+00,5.590496063232421875e+00,5.604952335357666016e+00,5.619233608245849609e+00,5.634220600128173828e+00,5.648978233337402344e+00,5.663885116577148438e+00,5.678849697113037109e+00,5.692712783813476562e+00,5.706887245178222656e+00,5.719401359558105469e+00,5.730950832366943359e+00,5.743405818939208984e+00,5.755440711975097656e+00,5.767530918121337891e+00,5.779115676879882812e+00,5.789495468139648438e+00,5.800157546997070312e+00,5.809304237365722656e+00,5.818620681762695312e+00,5.827329158782958984e+00,5.835442066192626953e+00,5.845510482788085938e+00,5.854354381561279297e+00,5.863508224487304688e+00,5.872478008270263672e+00,5.880877494812011719e+00,5.888483047485351562e+00,5.894891262054443359e+00,5.901331901550292969e+00,5.907377243041992188e+00,5.914461612701416016e+00,5.921323299407958984e+00,5.928874015808105469e+00,5.936195850372314453e+00,5.943151950836181641e+00,5.949911594390869141e+00,5.955847263336181641e+00,5.961197376251220703e+00,5.965666294097900391e+00,5.969878673553466797e+00,5.972966194152832031e+00,5.976949691772460938e+00,5.980733871459960938e+00,5.984210968017578125e+00,5.988437652587890625e+00,5.991271495819091797e+00,5.994349479675292969e+00,5.996693611145019531e+00,5.998918056488037109e+00,6.000697135925292969e+00,6.002526760101318359e+00,6.004907131195068359e+00,6.007199764251708984e+00,6.009294509887695312e+00,6.011188983917236328e+00,6.013137817382812500e+00,6.015193939208984375e+00,6.018052577972412109e+00,6.020496845245361328e+00,6.022573471069335938e+00,6.024740695953369141e+00,6.027053833007812500e+00,6.028747081756591797e+00,6.029652595520019531e+00,6.030359268188476562e+00,6.031274795532226562e+00,6.031711578369140625e+00,6.032174110412597656e+00,6.032813549041748047e+00,6.033199310302734375e+00,6.033057689666748047e+00,6.032842636108398438e+00,6.031982421875000000e+00,6.030681610107421875e+00,6.029308319091796875e+00,6.027363777160644531e+00,6.026114463806152344e+00,6.024498462677001953e+00,6.023498535156250000e+00,6.023036479949951172e+00,6.022088527679443359e+00,6.021414756774902344e+00,6.020449161529541016e+00,6.019923210144042969e+00,6.019249916076660156e+00,6.018795013427734375e+00,6.017846584320068359e+00,6.016057968139648438e+00,6.014500141143798828e+00,6.012573242187500000e+00,6.010816574096679688e+00,6.009619235992431641e+00,6.008821010589599609e+00,6.007998466491699219e+00,6.007479190826416016e+00,6.006964206695556641e+00,6.007076263427734375e+00
5.232980251312255859e+00,5.251498222351074219e+00,5.269217491149902344e+00,5.288479804992675781e+00,5.307752132415771484e+00,5.326973915100097656e+00,5.346248626708984375e+00,5.365768432617187500e+00,5.383970737457275391e+00,5.400864124298095703e+00,5.418058872222900391e+00,5.433928966522216797e+00,5.449610710144042969e+00,5.464817047119140625e+00,5.479748725891113281e+00,5.494617938995361328e+00,5.509560108184814453e+00,5.523818492889404297e+00,5.537706851959228516e+00,5.550432205200195312e+00,5.563758373260498047e+00,5.577750682830810547e+00,5.591825008392333984e+00,5.606164455413818359e+00,5.620806217193603516e+00,5.635578632354736328e+00,5.650273323059082031e+00,5.665208816528320312e+00,5.679789543151855469e+00,5.693688392639160156e+00,5.707713603973388672e+00,5.720263004302978516e+00,5.732073783874511719e+00,5.744579315185546875e+00,5.756661415100097656e+00,5.768789768218994141e+00,5.780369281768798828e+00,5.790928840637207031e+00,5.801462173461914062e+00,5.810662746429443359e+00,5.820174694061279297e+00,5.828918933868408203e+00,5.837049484252929688e+00,5.846574306488037109e+00,5.855515003204345703e+00,5.864573478698730469e+00,5.873149871826171875e+00,5.881604671478271484e+00,5.889077186584472656e+00,5.895548820495605469e+00,5.902315616607666016e+00,5.908128261566162109e+00,5.914786338806152344e+00,5.921074867248535156e+00,5.927861213684082031e+00,5.935101509094238281e+00,5.941861629486083984e+00,5.948826789855957031e+00,5.955125808715820312e+00,5.960344314575195312e+00,5.965023994445800781e+00,5.969235420227050781e+00,5.972302913665771484e+00,5.976256847381591797e+00,5.979886054992675781e+00,5.983424663543701172e+00,5.987427234649658203e+00,5.990246772766113281e+00,5.993373870849609375e+00,5.995759487152099609e+00,5.998026847839355469e+00,5.999570846557617188e+00,6.001505851745605469e+00,6.003714561462402344e+00,6.005976676940917969e+00,6.008271694183349609e+00,6.010077476501464844e+00,6.012187480926513672e+00,6.014286518096923828e+00,6.017179489135742188e+00,6.019550800323486328e+00,6.021615505218505859e+00,6.024045467376708984e+00,6.026539325714111328e+00,6.028224945068359375e+00,6.029279708862304688e+00,6.030228137969970703e+00,6.031175136566162109e+00,6.031849384307861328e+00,6.032614231109619141e+00,6.033200740814208984e+00,6.033654212951660156e+00,6.033992767333984375e+00,6.033691406250000000e+00,6.032592296600341797e+00,6.031255722045898438e+00,6.029927253723144531e+00,6.028084278106689453e+00,6.026837825775146484e+00,6.024923324584960938e+00,6.023963451385498047e+00,6.023427963256835938e+00,6.022707462310791016e+00,6.022432804107666016e+00,6.021490573883056641e+00,6.020821571350097656e+00,6.019893169403076172e+00,6.019448757171630859e+00,6.018449783325195312e+00,6.017077445983886719e+00,6.015521049499511719e+00,6.013866424560546875e+00,6.012342453002929688e+00,6.010766506195068359e+00,6.009887218475341797e+00,6.008839607238769531e+00,6.007991790771484375e+00,6.007390022277832031e+00,6.007217884063720703e+00
5.236147403717041016e+00,5.254868984222412109e+00,5.272665500640869141e+00,5.291745185852050781e+00,5.310783863067626953e+00,5.329856395721435547e+00,5.349029541015625000e+00,5.368290424346923828e+00,5.386319160461425781e+00,5.402739048004150391e+00,5.419950962066650391e+00,5.435838699340820312e+00,5.450991630554199219e+00,5.466447830200195312e+00,5.481534004211425781e+00,5.496590137481689453e+00,5.512326717376708984e+00,5.526827812194824219e+00,5.540060520172119141e+00,5.552697181701660156e+00,5.565263748168945312e+00,5.579230785369873047e+00,5.593320369720458984e+00,5.607708930969238281e+00,5.622379302978515625e+00,5.636875152587890625e+00,5.651633262634277344e+00,5.666555404663085938e+00,5.681073188781738281e+00,5.695062160491943359e+00,5.708880424499511719e+00,5.721273422241210938e+00,5.732931137084960938e+00,5.745282649993896484e+00,5.757317066192626953e+00,5.769559383392333984e+00,5.781259536743164062e+00,5.791830539703369141e+00,5.802385330200195312e+00,5.811641693115234375e+00,5.821138858795166016e+00,5.829922676086425781e+00,5.838243484497070312e+00,5.847465991973876953e+00,5.856129646301269531e+00,5.865396499633789062e+00,5.873696327209472656e+00,5.881943225860595703e+00,5.889561653137207031e+00,5.895996093750000000e+00,5.903241634368896484e+00,5.909019947052001953e+00,5.915106773376464844e+00,5.921075820922851562e+00,5.927270889282226562e+00,5.934879302978515625e+00,5.941934585571289062e+00,5.948841571807861328e+00,5.955014705657958984e+00,5.959558010101318359e+00,5.963762760162353516e+00,5.967974662780761719e+00,5.971326351165771484e+00,5.975222587585449219e+00,5.979033946990966797e+00,5.982550144195556641e+00,5.986257553100585938e+00,5.989189624786376953e+00,5.992501735687255859e+00,5.994918346405029297e+00,5.997231960296630859e+00,5.998733043670654297e+00,6.000898361206054688e+00,6.002871513366699219e+00,6.005020141601562500e+00,6.007193565368652344e+00,6.009197235107421875e+00,6.011292934417724609e+00,6.013617992401123047e+00,6.016606330871582031e+00,6.018711090087890625e+00,6.020695686340332031e+00,6.023006439208984375e+00,6.025645732879638672e+00,6.027632236480712891e+00,6.028838634490966797e+00,6.029992580413818359e+00,6.030907630920410156e+00,6.031808853149414062e+00,6.033002376556396484e+00,6.033617019653320312e+00,6.033937931060791016e+00,6.034099102020263672e+00,6.033761501312255859e+00,6.033152580261230469e+00,6.032215595245361328e+00,6.031034469604492188e+00,6.029649257659912109e+00,6.028267860412597656e+00,6.026360988616943359e+00,6.025344371795654297e+00,6.024368762969970703e+00,6.023859977722167969e+00,6.023386001586914062e+00,6.022294521331787109e+00,6.021718978881835938e+00,6.020809173583984375e+00,6.020400524139404297e+00,6.019647121429443359e+00,6.018176078796386719e+00,6.016839027404785156e+00,6.015463352203369141e+00,6.013967990875244141e+00,6.012465953826904297e+00,6.011400699615478516e+00,6.010255336761474609e+00,6.009110927581787109e+00,6.008488178253173828e+00,6.008092880249023438e+00
5.241178989410400391e+00,5.259517192840576172e+00,5.276877403259277344e+00,5.295197963714599609e+00,5.314015388488769531e+00,5.332782745361328125e+00,5.351862907409667969e+00,5.370878696441650391e+00,5.388484954833984375e+00,5.404791355133056641e+00,5.421286582946777344e+00,5.436998844146728516e+00,5.452009201049804688e+00,5.468396663665771484e+00,5.484438896179199219e+00,5.499943733215332031e+00,5.516366958618164062e+00,5.530552387237548828e+00,5.544050693511962891e+00,5.556568622589111328e+00,5.569300651550292969e+00,5.583445549011230469e+00,5.597104549407958984e+00,5.611557006835937500e+00,5.626044750213623047e+00,5.639800548553466797e+00,5.654264926910400391e+00,5.668973445892333984e+00,5.683483123779296875e+00,5.697592735290527344e+00,5.711225032806396484e+00,5.723406791687011719e+00,5.734939575195312500e+00,5.747105598449707031e+00,5.759171962738037109e+00,5.771292686462402344e+00,5.782804012298583984e+00,5.793303012847900391e+00,5.803667545318603516e+00,5.812813758850097656e+00,5.822203159332275391e+00,5.830886840820312500e+00,5.839409351348876953e+00,5.848499774932861328e+00,5.856926918029785156e+00,5.865460395812988281e+00,5.873704433441162109e+00,5.881970882415771484e+00,5.889680385589599609e+00,5.896273136138916016e+00,5.903593540191650391e+00,5.909525871276855469e+00,5.915512561798095703e+00,5.921560764312744141e+00,5.927706718444824219e+00,5.934988498687744141e+00,5.941809177398681641e+00,5.948314189910888672e+00,5.954112529754638672e+00,5.958716869354248047e+00,5.962929725646972656e+00,5.966801643371582031e+00,5.970471382141113281e+00,5.974348545074462891e+00,5.978024959564208984e+00,5.981716156005859375e+00,5.985399723052978516e+00,5.988824844360351562e+00,5.992218494415283203e+00,5.994946479797363281e+00,5.997314453125000000e+00,5.998935699462890625e+00,6.001410484313964844e+00,6.003356456756591797e+00,6.005583286285400391e+00,6.007925033569335938e+00,6.009868144989013672e+00,6.012290477752685547e+00,6.014550209045410156e+00,6.017562866210937500e+00,6.019650459289550781e+00,6.021508216857910156e+00,6.023749351501464844e+00,6.026447296142578125e+00,6.028754234313964844e+00,6.029955387115478516e+00,6.031347751617431641e+00,6.032490730285644531e+00,6.033292293548583984e+00,6.034516811370849609e+00,6.035236358642578125e+00,6.035696029663085938e+00,6.035830020904541016e+00,6.035315990447998047e+00,6.034802436828613281e+00,6.034275531768798828e+00,6.033157825469970703e+00,6.031683444976806641e+00,6.030244827270507812e+00,6.028588771820068359e+00,6.027513504028320312e+00,6.026346206665039062e+00,6.025613784790039062e+00,6.025002002716064453e+00,6.023681640625000000e+00,6.023202419281005859e+00,6.022373199462890625e+00,6.021634578704833984e+00,6.021162509918212891e+00,6.019675254821777344e+00,6.018239021301269531e+00,6.017060756683349609e+00,6.015651702880859375e+00,6.014413356781005859e+00,6.013316154479980469e+00,6.012104511260986328e+00,6.010744571685791016e+00,6.009899139404296875e+00,6.009408950805664062e+00
5.245477676391601562e+00,5.263318061828613281e+00,5.281109809875488281e+00,5.299288749694824219e+00,5.318030834197998047e+00,5.336481094360351562e+00,5.354562759399414062e+00,5.373744487762451172e+00,5.391333103179931641e+00,5.407170295715332031e+00,5.423305511474609375e+00,5.438544750213623047e+00,5.454162120819091797e+00,5.470208168029785156e+00,5.485000610351562500e+00,5.501854896545410156e+00,5.519069671630859375e+00,5.533451080322265625e+00,5.547650337219238281e+00,5.560620784759521484e+00,5.573455810546875000e+00,5.587502956390380859e+00,5.600794792175292969e+00,5.615121364593505859e+00,5.629310131072998047e+00,5.643125057220458984e+00,5.657659530639648438e+00,5.672121047973632812e+00,5.686454296112060547e+00,5.700305938720703125e+00,5.713670730590820312e+00,5.725751399993896484e+00,5.736964225769042969e+00,5.748948574066162109e+00,5.760678768157958984e+00,5.772469043731689453e+00,5.783842086791992188e+00,5.793995857238769531e+00,5.804195404052734375e+00,5.813476085662841797e+00,5.822581768035888672e+00,5.831011772155761719e+00,5.839767932891845703e+00,5.848530292510986328e+00,5.856944084167480469e+00,5.865554332733154297e+00,5.873499870300292969e+00,5.881654262542724609e+00,5.889221668243408203e+00,5.895897865295410156e+00,5.902926445007324219e+00,5.908987998962402344e+00,5.915106296539306641e+00,5.921595573425292969e+00,5.927666187286376953e+00,5.935053825378417969e+00,5.941506385803222656e+00,5.947205066680908203e+00,5.952567577362060547e+00,5.957123279571533203e+00,5.961389064788818359e+00,5.965550422668457031e+00,5.969312191009521484e+00,5.972889900207519531e+00,5.976582050323486328e+00,5.980586528778076172e+00,5.984426498413085938e+00,5.988042831420898438e+00,5.991500377655029297e+00,5.994190692901611328e+00,5.996642589569091797e+00,5.998514175415039062e+00,6.001024723052978516e+00,6.003274440765380859e+00,6.005800724029541016e+00,6.008252143859863281e+00,6.010265350341796875e+00,6.012808322906494141e+00,6.015346527099609375e+00,6.018183708190917969e+00,6.020480155944824219e+00,6.022421360015869141e+00,6.024648666381835938e+00,6.027132987976074219e+00,6.029687404632568359e+00,6.030998706817626953e+00,6.032093524932861328e+00,6.033240318298339844e+00,6.034141063690185547e+00,6.035436630249023438e+00,6.036351203918457031e+00,6.036685943603515625e+00,6.036850452423095703e+00,6.036273002624511719e+00,6.035719394683837891e+00,6.035210609436035156e+00,6.034274101257324219e+00,6.032815456390380859e+00,6.031337261199951172e+00,6.029774665832519531e+00,6.028563976287841797e+00,6.027517795562744141e+00,6.026792049407958984e+00,6.026157379150390625e+00,6.025103569030761719e+00,6.024379253387451172e+00,6.023507595062255859e+00,6.022576808929443359e+00,6.022100448608398438e+00,6.020784854888916016e+00,6.019326686859130859e+00,6.018151283264160156e+00,6.016688346862792969e+00,6.015394687652587891e+00,6.014301776885986328e+00,6.012987136840820312e+00,6.011625289916992188e+00,6.010636806488037109e+00,6.010087490081787109e+00
5.251099109649658203e+00,5.269091606140136719e+00,5.286819458007812500e+00,5.305353164672851562e+00,5.323336601257324219e+00,5.341563701629638672e+00,5.359910964965820312e+00,5.378844738006591797e+00,5.396480560302734375e+00,5.411577224731445312e+00,5.427119731903076172e+00,5.442084312438964844e+00,5.456458091735839844e+00,5.471597671508789062e+00,5.487047195434570312e+00,5.503807544708251953e+00,5.521348476409912109e+00,5.538436889648437500e+00,5.552017688751220703e+00,5.565020084381103516e+00,5.577823638916015625e+00,5.591597080230712891e+00,5.604529380798339844e+00,5.619040012359619141e+00,5.633098125457763672e+00,5.646952629089355469e+00,5.661436080932617188e+00,5.675598621368408203e+00,5.689891338348388672e+00,5.703208446502685547e+00,5.716362476348876953e+00,5.728140830993652344e+00,5.738979339599609375e+00,5.750669002532958984e+00,5.762037754058837891e+00,5.773632049560546875e+00,5.784606456756591797e+00,5.794786930084228516e+00,5.804803371429443359e+00,5.814093112945556641e+00,5.823155403137207031e+00,5.831560611724853516e+00,5.840307712554931641e+00,5.848833560943603516e+00,5.857276439666748047e+00,5.865658760070800781e+00,5.873768806457519531e+00,5.881794929504394531e+00,5.889378070831298828e+00,5.896238327026367188e+00,5.903220653533935547e+00,5.909204006195068359e+00,5.915216445922851562e+00,5.921453952789306641e+00,5.927583217620849609e+00,5.934542655944824219e+00,5.940889835357666016e+00,5.946630477905273438e+00,5.951719760894775391e+00,5.956089019775390625e+00,5.960445404052734375e+00,5.964520454406738281e+00,5.968586444854736328e+00,5.972359180450439453e+00,5.976356029510498047e+00,5.980327606201171875e+00,5.984061717987060547e+00,5.987891197204589844e+00,5.991036891937255859e+00,5.993673801422119141e+00,5.996223926544189453e+00,5.998224258422851562e+00,6.000824451446533203e+00,6.003271102905273438e+00,6.005795955657958984e+00,6.008319854736328125e+00,6.010192394256591797e+00,6.012647151947021484e+00,6.015127658843994141e+00,6.017948627471923828e+00,6.020620346069335938e+00,6.022619724273681641e+00,6.025278091430664062e+00,6.027875900268554688e+00,6.030153751373291016e+00,6.031561374664306641e+00,6.032608032226562500e+00,6.033830165863037109e+00,6.034564971923828125e+00,6.035531997680664062e+00,6.036176681518554688e+00,6.036348819732666016e+00,6.036591053009033203e+00,6.035888195037841797e+00,6.035692214965820312e+00,6.035248279571533203e+00,6.034369468688964844e+00,6.033224105834960938e+00,6.031762599945068359e+00,6.030665874481201172e+00,6.029630661010742188e+00,6.028820037841796875e+00,6.028112888336181641e+00,6.027580738067626953e+00,6.026539325714111328e+00,6.025748729705810547e+00,6.025071620941162109e+00,6.024401664733886719e+00,6.023877620697021484e+00,6.022484302520751953e+00,6.020983219146728516e+00,6.019644737243652344e+00,6.018342494964599609e+00,6.017006874084472656e+00,6.015951156616210938e+00,6.014612197875976562e+00,6.013095855712890625e+00,6.012139797210693359e+00,6.011538028717041016e+00
5.257432937622070312e+00,5.275823593139648438e+00,5.293854236602783203e+00,5.311918258666992188e+00,5.329480171203613281e+00,5.347529888153076172e+00,5.365334033966064453e+00,5.383291721343994141e+00,5.400613307952880859e+00,5.415777683258056641e+00,5.430898666381835938e+00,5.445007324218750000e+00,5.459167003631591797e+00,5.473027229309082031e+00,5.489541053771972656e+00,5.507070541381835938e+00,5.527418613433837891e+00,5.540702342987060547e+00,5.555687904357910156e+00,5.568864822387695312e+00,5.581920623779296875e+00,5.595561504364013672e+00,5.608213424682617188e+00,5.622887134552001953e+00,5.636659145355224609e+00,5.650635242462158203e+00,5.664753913879394531e+00,5.678575515747070312e+00,5.692797183990478516e+00,5.705533504486083984e+00,5.718379020690917969e+00,5.729966640472412109e+00,5.740539550781250000e+00,5.752014636993408203e+00,5.763296604156494141e+00,5.774584293365478516e+00,5.785387039184570312e+00,5.795248031616210938e+00,5.804984092712402344e+00,5.814287662506103516e+00,5.823416233062744141e+00,5.831949234008789062e+00,5.840508937835693359e+00,5.848970890045166016e+00,5.857113838195800781e+00,5.865321159362792969e+00,5.873497962951660156e+00,5.881386280059814453e+00,5.888902187347412109e+00,5.895953178405761719e+00,5.902823925018310547e+00,5.909065723419189453e+00,5.915223598480224609e+00,5.921391010284423828e+00,5.927469253540039062e+00,5.933874607086181641e+00,5.939860820770263672e+00,5.945140361785888672e+00,5.950057983398437500e+00,5.954529285430908203e+00,5.958759784698486328e+00,5.963022232055664062e+00,5.967439651489257812e+00,5.971721172332763672e+00,5.975586414337158203e+00,5.979384899139404297e+00,5.983355522155761719e+00,5.986808300018310547e+00,5.990240573883056641e+00,5.992837429046630859e+00,5.995354175567626953e+00,5.997305870056152344e+00,5.999850273132324219e+00,6.002442836761474609e+00,6.005012035369873047e+00,6.007815361022949219e+00,6.009466171264648438e+00,6.011956214904785156e+00,6.014249801635742188e+00,6.017015933990478516e+00,6.019958496093750000e+00,6.021808624267578125e+00,6.024671077728271484e+00,6.027371406555175781e+00,6.029708862304687500e+00,6.031419277191162109e+00,6.032374858856201172e+00,6.033547401428222656e+00,6.034107208251953125e+00,6.034731864929199219e+00,6.035521984100341797e+00,6.035634994506835938e+00,6.035985946655273438e+00,6.035304546356201172e+00,6.034845352172851562e+00,6.034221649169921875e+00,6.033588886260986328e+00,6.032531261444091797e+00,6.031405448913574219e+00,6.030613899230957031e+00,6.029754638671875000e+00,6.029332160949707031e+00,6.028756141662597656e+00,6.028427600860595703e+00,6.027520656585693359e+00,6.026855945587158203e+00,6.026249885559082031e+00,6.025513172149658203e+00,6.024960517883300781e+00,6.023356437683105469e+00,6.022207260131835938e+00,6.020702362060546875e+00,6.019276618957519531e+00,6.017638683319091797e+00,6.016509532928466797e+00,6.015256881713867188e+00,6.014086246490478516e+00,6.013186454772949219e+00,6.012259960174560547e+00
5.266084194183349609e+00,5.283921718597412109e+00,5.301153659820556641e+00,5.318880081176757812e+00,5.336599826812744141e+00,5.354130744934082031e+00,5.371960639953613281e+00,5.389220714569091797e+00,5.406200408935546875e+00,5.421460151672363281e+00,5.435986995697021484e+00,5.450136661529541016e+00,5.462931632995605469e+00,5.477292537689208984e+00,5.492522716522216797e+00,5.512593269348144531e+00,5.528823375701904297e+00,5.545744419097900391e+00,5.559988021850585938e+00,5.572688102722167969e+00,5.584985733032226562e+00,5.598215103149414062e+00,5.610844135284423828e+00,5.625492572784423828e+00,5.639372348785400391e+00,5.653474807739257812e+00,5.667563915252685547e+00,5.681108951568603516e+00,5.695013523101806641e+00,5.707448005676269531e+00,5.719911098480224609e+00,5.731229305267333984e+00,5.741712570190429688e+00,5.752979755401611328e+00,5.764219284057617188e+00,5.775613784790039062e+00,5.786357402801513672e+00,5.796207904815673828e+00,5.805707931518554688e+00,5.814909458160400391e+00,5.823881626129150391e+00,5.832562446594238281e+00,5.841089248657226562e+00,5.849482536315917969e+00,5.857892513275146484e+00,5.865862369537353516e+00,5.874111175537109375e+00,5.881879329681396484e+00,5.889450073242187500e+00,5.896768093109130859e+00,5.903601646423339844e+00,5.909979820251464844e+00,5.916017532348632812e+00,5.922180652618408203e+00,5.928445339202880859e+00,5.934575080871582031e+00,5.940708637237548828e+00,5.945855617523193359e+00,5.950647354125976562e+00,5.955365180969238281e+00,5.959429264068603516e+00,5.963842391967773438e+00,5.968519687652587891e+00,5.973044395446777344e+00,5.977577686309814453e+00,5.981711387634277344e+00,5.985603809356689453e+00,5.989085674285888672e+00,5.992622852325439453e+00,5.995270252227783203e+00,5.998070716857910156e+00,6.000147819519042969e+00,6.002803325653076172e+00,6.005466461181640625e+00,6.008170604705810547e+00,6.011175155639648438e+00,6.013146400451660156e+00,6.015651226043701172e+00,6.017931461334228516e+00,6.020972728729248047e+00,6.024161338806152344e+00,6.026477813720703125e+00,6.029550075531005859e+00,6.031805515289306641e+00,6.033968925476074219e+00,6.035583496093750000e+00,6.036414623260498047e+00,6.037394523620605469e+00,6.037823677062988281e+00,6.038187026977539062e+00,6.038736343383789062e+00,6.038894176483154297e+00,6.038736343383789062e+00,6.037763595581054688e+00,6.037130355834960938e+00,6.036334037780761719e+00,6.035600185394287109e+00,6.034495830535888672e+00,6.033448696136474609e+00,6.032699584960937500e+00,6.031855583190917969e+00,6.031517982482910156e+00,6.030814170837402344e+00,6.030273914337158203e+00,6.029464244842529297e+00,6.028897285461425781e+00,6.028346061706542969e+00,6.027590751647949219e+00,6.027049064636230469e+00,6.025736808776855469e+00,6.024481296539306641e+00,6.023368358612060547e+00,6.021970272064208984e+00,6.020092964172363281e+00,6.019215106964111328e+00,6.017711639404296875e+00,6.016359806060791016e+00,6.015181064605712891e+00,6.013983726501464844e+00
5.274462699890136719e+00,5.291769981384277344e+00,5.308920383453369141e+00,5.325990200042724609e+00,5.343626022338867188e+00,5.361138820648193359e+00,5.378531455993652344e+00,5.395278453826904297e+00,5.411910533905029297e+00,5.426465988159179688e+00,5.440901279449462891e+00,5.455121994018554688e+00,5.468471050262451172e+00,5.482619762420654297e+00,5.496827602386474609e+00,5.515326023101806641e+00,5.531914710998535156e+00,5.546777725219726562e+00,5.562445163726806641e+00,5.574303627014160156e+00,5.587029457092285156e+00,5.600519180297851562e+00,5.613336086273193359e+00,5.627948760986328125e+00,5.641752719879150391e+00,5.655592441558837891e+00,5.669097900390625000e+00,5.682589054107666016e+00,5.696670055389404297e+00,5.708929061889648438e+00,5.721159458160400391e+00,5.732113838195800781e+00,5.742244243621826172e+00,5.753487110137939453e+00,5.764726638793945312e+00,5.776198863983154297e+00,5.787067413330078125e+00,5.796835422515869141e+00,5.806352138519287109e+00,5.815503120422363281e+00,5.824674606323242188e+00,5.833382129669189453e+00,5.842026233673095703e+00,5.850420475006103516e+00,5.858481884002685547e+00,5.866400241851806641e+00,5.874587535858154297e+00,5.882245063781738281e+00,5.889821052551269531e+00,5.897540092468261719e+00,5.904464721679687500e+00,5.911082267761230469e+00,5.917333602905273438e+00,5.923579216003417969e+00,5.929881095886230469e+00,5.935966014862060547e+00,5.942193984985351562e+00,5.947243213653564453e+00,5.951894760131835938e+00,5.956861019134521484e+00,5.961212158203125000e+00,5.965933322906494141e+00,5.970886707305908203e+00,5.975853443145751953e+00,5.980269908905029297e+00,5.984312057495117188e+00,5.988486289978027344e+00,5.992204666137695312e+00,5.995897769927978516e+00,5.998598575592041016e+00,6.001412391662597656e+00,6.003547191619873047e+00,6.006413459777832031e+00,6.009049892425537109e+00,6.011986732482910156e+00,6.015005111694335938e+00,6.017072677612304688e+00,6.019720077514648438e+00,6.022023200988769531e+00,6.025442600250244141e+00,6.028762817382812500e+00,6.031149864196777344e+00,6.034292697906494141e+00,6.036580085754394531e+00,6.038605213165283203e+00,6.040322303771972656e+00,6.041265487670898438e+00,6.041842460632324219e+00,6.041673660278320312e+00,6.041763305664062500e+00,6.042150974273681641e+00,6.042214870452880859e+00,6.041812896728515625e+00,6.040669441223144531e+00,6.039699077606201172e+00,6.038955211639404297e+00,6.038003921508789062e+00,6.036776542663574219e+00,6.035498142242431641e+00,6.034676074981689453e+00,6.034042358398437500e+00,6.033690929412841797e+00,6.032885551452636719e+00,6.032296180725097656e+00,6.031724452972412109e+00,6.031237125396728516e+00,6.030792236328125000e+00,6.030033111572265625e+00,6.029227256774902344e+00,6.027653694152832031e+00,6.026476860046386719e+00,6.025089263916015625e+00,6.023699760437011719e+00,6.022061824798583984e+00,6.020914077758789062e+00,6.019300460815429688e+00,6.017830371856689453e+00,6.016635894775390625e+00,6.015163421630859375e+00
5.280368804931640625e+00,5.297289848327636719e+00,5.313572883605957031e+00,5.330722808837890625e+00,5.348383903503417969e+00,5.365459442138671875e+00,5.382452487945556641e+00,5.398932456970214844e+00,5.414712429046630859e+00,5.429470062255859375e+00,5.443670749664306641e+00,5.457282066345214844e+00,5.470707893371582031e+00,5.484856128692626953e+00,5.500021934509277344e+00,5.515820503234863281e+00,5.531919002532958984e+00,5.547904014587402344e+00,5.562643527984619141e+00,5.574707031250000000e+00,5.588376998901367188e+00,5.601311683654785156e+00,5.614471912384033203e+00,5.628978252410888672e+00,5.642322540283203125e+00,5.656031608581542969e+00,5.669271469116210938e+00,5.683002471923828125e+00,5.696801662445068359e+00,5.709131240844726562e+00,5.721154212951660156e+00,5.731794357299804688e+00,5.741810798645019531e+00,5.752923488616943359e+00,5.764144897460937500e+00,5.775560855865478516e+00,5.786568641662597656e+00,5.796469211578369141e+00,5.805705547332763672e+00,5.814801692962646484e+00,5.823775768280029297e+00,5.832560539245605469e+00,5.841195106506347656e+00,5.849483489990234375e+00,5.857689857482910156e+00,5.865676403045654297e+00,5.874034404754638672e+00,5.881828784942626953e+00,5.889626979827880859e+00,5.897245407104492188e+00,5.904205322265625000e+00,5.910895824432373047e+00,5.917277336120605469e+00,5.923795223236083984e+00,5.930061817169189453e+00,5.935864448547363281e+00,5.942175388336181641e+00,5.947067737579345703e+00,5.951784133911132812e+00,5.957002639770507812e+00,5.961441516876220703e+00,5.966354370117187500e+00,5.971235752105712891e+00,5.976473808288574219e+00,5.981165885925292969e+00,5.985530376434326172e+00,5.989520072937011719e+00,5.992928028106689453e+00,5.996791362762451172e+00,5.999563694000244141e+00,6.002382755279541016e+00,6.004688739776611328e+00,6.007732391357421875e+00,6.010271072387695312e+00,6.013089656829833984e+00,6.015733718872070312e+00,6.017797470092773438e+00,6.020296096801757812e+00,6.022912502288818359e+00,6.026634693145751953e+00,6.029769420623779297e+00,6.032461643218994141e+00,6.035115242004394531e+00,6.037279129028320312e+00,6.039355278015136719e+00,6.040635585784912109e+00,6.042047500610351562e+00,6.042559623718261719e+00,6.042421340942382812e+00,6.042655467987060547e+00,6.043077468872070312e+00,6.042947292327880859e+00,6.042301177978515625e+00,6.041553974151611328e+00,6.040211200714111328e+00,6.039519786834716797e+00,6.038658618927001953e+00,6.037388801574707031e+00,6.036244392395019531e+00,6.035293102264404297e+00,6.034550666809082031e+00,6.034035205841064453e+00,6.033275127410888672e+00,6.032480239868164062e+00,6.031842708587646484e+00,6.031097888946533203e+00,6.030444145202636719e+00,6.029789924621582031e+00,6.028900146484375000e+00,6.027557849884033203e+00,6.026547908782958984e+00,6.025142192840576172e+00,6.023437023162841797e+00,6.021952629089355469e+00,6.020773887634277344e+00,6.018744468688964844e+00,6.017246246337890625e+00,6.015317440032958984e+00,6.013872146606445312e+00
5.286370754241943359e+00,5.302756309509277344e+00,5.319291591644287109e+00,5.336038589477539062e+00,5.352884292602539062e+00,5.369780063629150391e+00,5.386471748352050781e+00,5.402589321136474609e+00,5.417688369750976562e+00,5.432668685913085938e+00,5.446793079376220703e+00,5.459745883941650391e+00,5.473135471343994141e+00,5.486543655395507812e+00,5.500421047210693359e+00,5.516912937164306641e+00,5.533163070678710938e+00,5.549431800842285156e+00,5.563374042510986328e+00,5.575612068176269531e+00,5.588524818420410156e+00,5.601728916168212891e+00,5.614713668823242188e+00,5.628881931304931641e+00,5.642530918121337891e+00,5.656054496765136719e+00,5.669212818145751953e+00,5.683115005493164062e+00,5.696651458740234375e+00,5.709128379821777344e+00,5.720960140228271484e+00,5.731277465820312500e+00,5.741415023803710938e+00,5.752319812774658203e+00,5.763325691223144531e+00,5.774555206298828125e+00,5.785287857055664062e+00,5.795202732086181641e+00,5.804795742034912109e+00,5.813656806945800781e+00,5.822525501251220703e+00,5.831372261047363281e+00,5.840003490447998047e+00,5.848391532897949219e+00,5.856870651245117188e+00,5.865146636962890625e+00,5.873801708221435547e+00,5.881743907928466797e+00,5.889256000518798828e+00,5.897070884704589844e+00,5.904081821441650391e+00,5.910654067993164062e+00,5.917144775390625000e+00,5.923749446868896484e+00,5.930293083190917969e+00,5.936227798461914062e+00,5.942244052886962891e+00,5.947128295898437500e+00,5.951912403106689453e+00,5.957303047180175781e+00,5.961983680725097656e+00,5.967143058776855469e+00,5.972004413604736328e+00,5.977329730987548828e+00,5.981958389282226562e+00,5.986471652984619141e+00,5.990855216979980469e+00,5.994455337524414062e+00,5.998281955718994141e+00,6.001166820526123047e+00,6.004133701324462891e+00,6.006768703460693359e+00,6.009850502014160156e+00,6.012272357940673828e+00,6.015041351318359375e+00,6.017362117767333984e+00,6.019411087036132812e+00,6.021989345550537109e+00,6.024686336517333984e+00,6.028427600860595703e+00,6.031485080718994141e+00,6.034109592437744141e+00,6.036463737487792969e+00,6.038881778717041016e+00,6.040786743164062500e+00,6.041934967041015625e+00,6.043348789215087891e+00,6.043706893920898438e+00,6.043878078460693359e+00,6.044230461120605469e+00,6.044306755065917969e+00,6.044502735137939453e+00,6.043828964233398438e+00,6.043002128601074219e+00,6.041682720184326172e+00,6.041028499603271484e+00,6.040325164794921875e+00,6.038866519927978516e+00,6.037367343902587891e+00,6.036226749420166016e+00,6.035478591918945312e+00,6.034635543823242188e+00,6.033578872680664062e+00,6.032549381256103516e+00,6.031507015228271484e+00,6.030576705932617188e+00,6.029883861541748047e+00,6.029203891754150391e+00,6.028385162353515625e+00,6.027311325073242188e+00,6.026295185089111328e+00,6.024891853332519531e+00,6.023429393768310547e+00,6.021837711334228516e+00,6.020181179046630859e+00,6.018402099609375000e+00,6.016331195831298828e+00,6.014094829559326172e+00,6.012657642364501953e+00
5.292358875274658203e+00,5.309129238128662109e+00,5.325114727020263672e+00,5.341512680053710938e+00,5.358060359954833984e+00,5.374591827392578125e+00,5.390268325805664062e+00,5.406260967254638672e+00,5.420861244201660156e+00,5.435760974884033203e+00,5.450143814086914062e+00,5.463098526000976562e+00,5.476166248321533203e+00,5.488917827606201172e+00,5.502529144287109375e+00,5.518513202667236328e+00,5.534031867980957031e+00,5.549255371093750000e+00,5.564278602600097656e+00,5.576078414916992188e+00,5.589159488677978516e+00,5.602268218994140625e+00,5.615610122680664062e+00,5.629344463348388672e+00,5.642638683319091797e+00,5.656015396118164062e+00,5.669124603271484375e+00,5.683049201965332031e+00,5.696529388427734375e+00,5.708705902099609375e+00,5.720406055450439453e+00,5.730695724487304688e+00,5.740884304046630859e+00,5.751835346221923828e+00,5.762589931488037109e+00,5.773566246032714844e+00,5.784168243408203125e+00,5.793846607208251953e+00,5.803285121917724609e+00,5.812077522277832031e+00,5.820963859558105469e+00,5.829780101776123047e+00,5.838675975799560547e+00,5.847068309783935547e+00,5.855570793151855469e+00,5.863981723785400391e+00,5.872861385345458984e+00,5.881081104278564453e+00,5.888533115386962891e+00,5.896240234375000000e+00,5.903324127197265625e+00,5.909818172454833984e+00,5.916529655456542969e+00,5.922951698303222656e+00,5.929309844970703125e+00,5.935363292694091797e+00,5.941167831420898438e+00,5.946293830871582031e+00,5.951261520385742188e+00,5.956723213195800781e+00,5.961700916290283203e+00,5.967048168182373047e+00,5.972121715545654297e+00,5.977246761322021484e+00,5.982067108154296875e+00,5.986541271209716797e+00,5.990829467773437500e+00,5.994750976562500000e+00,5.998526573181152344e+00,6.001431465148925781e+00,6.004245758056640625e+00,6.006855964660644531e+00,6.009926319122314453e+00,6.012254238128662109e+00,6.014855384826660156e+00,6.017179489135742188e+00,6.019309520721435547e+00,6.022072315216064453e+00,6.024945735931396484e+00,6.028345108032226562e+00,6.031426906585693359e+00,6.033549785614013672e+00,6.035712718963623047e+00,6.038051605224609375e+00,6.039686679840087891e+00,6.040836811065673828e+00,6.042266368865966797e+00,6.043169498443603516e+00,6.043047428131103516e+00,6.043485164642333984e+00,6.043889999389648438e+00,6.043770790100097656e+00,6.043147087097167969e+00,6.042082309722900391e+00,6.040642738342285156e+00,6.040070056915283203e+00,6.038917064666748047e+00,6.037599563598632812e+00,6.036076545715332031e+00,6.035051345825195312e+00,6.034055233001708984e+00,6.032862663269042969e+00,6.031783580780029297e+00,6.030909538269042969e+00,6.029795646667480469e+00,6.028859138488769531e+00,6.028296947479248047e+00,6.027457237243652344e+00,6.026685714721679688e+00,6.025689601898193359e+00,6.024712085723876953e+00,6.023351669311523438e+00,6.021697998046875000e+00,6.019964694976806641e+00,6.018526077270507812e+00,6.016589164733886719e+00,6.015050888061523438e+00,6.012633800506591797e+00,6.010925292968750000e+00
5.298329353332519531e+00,5.313978195190429688e+00,5.330078601837158203e+00,5.345765590667724609e+00,5.361783027648925781e+00,5.377860546112060547e+00,5.393727302551269531e+00,5.409373283386230469e+00,5.424096584320068359e+00,5.439163684844970703e+00,5.453401088714599609e+00,5.466380119323730469e+00,5.479714393615722656e+00,5.492210865020751953e+00,5.505390167236328125e+00,5.520303726196289062e+00,5.535430431365966797e+00,5.549900531768798828e+00,5.564149379730224609e+00,5.577005386352539062e+00,5.589600086212158203e+00,5.602852344512939453e+00,5.615633964538574219e+00,5.629028797149658203e+00,5.642112255096435547e+00,5.655417919158935547e+00,5.668888092041015625e+00,5.682670116424560547e+00,5.696018695831298828e+00,5.708342075347900391e+00,5.719875335693359375e+00,5.730491161346435547e+00,5.740762710571289062e+00,5.751420497894287109e+00,5.762095451354980469e+00,5.772731781005859375e+00,5.782957077026367188e+00,5.792455673217773438e+00,5.801775932312011719e+00,5.810648918151855469e+00,5.819712638854980469e+00,5.828603744506835938e+00,5.837254524230957031e+00,5.845654964447021484e+00,5.854259014129638672e+00,5.862794876098632812e+00,5.871928215026855469e+00,5.880430221557617188e+00,5.888168334960937500e+00,5.895864963531494141e+00,5.902798652648925781e+00,5.909335136413574219e+00,5.915921688079833984e+00,5.921987533569335938e+00,5.928357124328613281e+00,5.934398174285888672e+00,5.940146446228027344e+00,5.945757865905761719e+00,5.951047897338867188e+00,5.956606388092041016e+00,5.961933612823486328e+00,5.967283248901367188e+00,5.972320556640625000e+00,5.977326869964599609e+00,5.982184410095214844e+00,5.986966609954833984e+00,5.991109848022460938e+00,5.995007514953613281e+00,5.998593330383300781e+00,6.001535415649414062e+00,6.004536151885986328e+00,6.007015228271484375e+00,6.009849071502685547e+00,6.012254238128662109e+00,6.014547348022460938e+00,6.016961097717285156e+00,6.019001960754394531e+00,6.021636962890625000e+00,6.024458408355712891e+00,6.027518272399902344e+00,6.030576229095458984e+00,6.032965183258056641e+00,6.034975528717041016e+00,6.037349224090576172e+00,6.039075374603271484e+00,6.040098667144775391e+00,6.041195869445800781e+00,6.042067050933837891e+00,6.042246818542480469e+00,6.042832851409912109e+00,6.043473720550537109e+00,6.043313980102539062e+00,6.042534351348876953e+00,6.041580200195312500e+00,6.040187358856201172e+00,6.039565563201904297e+00,6.038843154907226562e+00,6.037565231323242188e+00,6.036117553710937500e+00,6.035014152526855469e+00,6.034086227416992188e+00,6.032621383666992188e+00,6.031156539916992188e+00,6.030145645141601562e+00,6.029203891754150391e+00,6.027982234954833984e+00,6.027062416076660156e+00,6.025903701782226562e+00,6.025004863739013672e+00,6.024451255798339844e+00,6.023609161376953125e+00,6.022210121154785156e+00,6.020980358123779297e+00,6.019599437713623047e+00,6.017971992492675781e+00,6.016174316406250000e+00,6.013874053955078125e+00,6.011625289916992188e+00,6.010011672973632812e+00
5.304042816162109375e+00,5.319452285766601562e+00,5.333837985992431641e+00,5.349231719970703125e+00,5.365250110626220703e+00,5.380772113800048828e+00,5.396261215209960938e+00,5.411696910858154297e+00,5.426430225372314453e+00,5.441477775573730469e+00,5.455924510955810547e+00,5.469033718109130859e+00,5.481915473937988281e+00,5.494778633117675781e+00,5.507871627807617188e+00,5.522297382354736328e+00,5.536972522735595703e+00,5.550685882568359375e+00,5.564428329467773438e+00,5.577419281005859375e+00,5.589928150177001953e+00,5.603257656097412109e+00,5.615535259246826172e+00,5.628828525543212891e+00,5.642064094543457031e+00,5.655183792114257812e+00,5.668877601623535156e+00,5.682540893554687500e+00,5.695852279663085938e+00,5.707908153533935547e+00,5.719559192657470703e+00,5.730159759521484375e+00,5.740452766418457031e+00,5.751077651977539062e+00,5.761490345001220703e+00,5.771977424621582031e+00,5.781925201416015625e+00,5.791381359100341797e+00,5.800755500793457031e+00,5.809450149536132812e+00,5.818628311157226562e+00,5.827609062194824219e+00,5.836528301239013672e+00,5.845175266265869141e+00,5.853650569915771484e+00,5.862133026123046875e+00,5.871242523193359375e+00,5.879662990570068359e+00,5.887348651885986328e+00,5.895084857940673828e+00,5.902096748352050781e+00,5.908608436584472656e+00,5.915165424346923828e+00,5.921289443969726562e+00,5.927698135375976562e+00,5.933651924133300781e+00,5.939662933349609375e+00,5.945368766784667969e+00,5.950604915618896484e+00,5.956538200378417969e+00,5.961748600006103516e+00,5.967248439788818359e+00,5.972404003143310547e+00,5.977270126342773438e+00,5.982358932495117188e+00,5.987005710601806641e+00,5.991060733795166016e+00,5.994759559631347656e+00,5.998254299163818359e+00,6.001108169555664062e+00,6.004180908203125000e+00,6.006766319274902344e+00,6.009627819061279297e+00,6.012141704559326172e+00,6.014275550842285156e+00,6.016884803771972656e+00,6.018916606903076172e+00,6.021883487701416016e+00,6.024680137634277344e+00,6.027690887451171875e+00,6.030676841735839844e+00,6.032686710357666016e+00,6.035448551177978516e+00,6.037614822387695312e+00,6.039392471313476562e+00,6.040679454803466797e+00,6.041228771209716797e+00,6.041902542114257812e+00,6.041806221008300781e+00,6.042399406433105469e+00,6.043229579925537109e+00,6.043112754821777344e+00,6.042753696441650391e+00,6.041689872741699219e+00,6.040446758270263672e+00,6.039813995361328125e+00,6.038680553436279297e+00,6.037293910980224609e+00,6.036128997802734375e+00,6.035232543945312500e+00,6.034295082092285156e+00,6.032993793487548828e+00,6.031936168670654297e+00,6.030821323394775391e+00,6.030244350433349609e+00,6.028992176055908203e+00,6.027940750122070312e+00,6.026388168334960938e+00,6.025258064270019531e+00,6.024636268615722656e+00,6.023727893829345703e+00,6.022504806518554688e+00,6.020881175994873047e+00,6.019633293151855469e+00,6.018179893493652344e+00,6.016121864318847656e+00,6.013957023620605469e+00,6.011646270751953125e+00,6.009664535522460938e+00
5.309002876281738281e+00,5.323619842529296875e+00,5.337980747222900391e+00,5.353012084960937500e+00,5.368801116943359375e+00,5.383790969848632812e+00,5.398779869079589844e+00,5.413886547088623047e+00,5.428647518157958984e+00,5.443495273590087891e+00,5.458136558532714844e+00,5.471845626831054688e+00,5.484725952148437500e+00,5.497296333312988281e+00,5.510408401489257812e+00,5.524192333221435547e+00,5.538547992706298828e+00,5.552165985107421875e+00,5.565523147583007812e+00,5.578262329101562500e+00,5.590584278106689453e+00,5.603708267211914062e+00,5.615907192230224609e+00,5.628895282745361328e+00,5.641801357269287109e+00,5.654733657836914062e+00,5.668272495269775391e+00,5.681843280792236328e+00,5.695211410522460938e+00,5.707003593444824219e+00,5.718642711639404297e+00,5.729450225830078125e+00,5.739634990692138672e+00,5.750322818756103516e+00,5.760372161865234375e+00,5.770715236663818359e+00,5.780667304992675781e+00,5.790191650390625000e+00,5.799639225006103516e+00,5.808203697204589844e+00,5.817554950714111328e+00,5.826591968536376953e+00,5.835657119750976562e+00,5.844347000122070312e+00,5.852967739105224609e+00,5.861591339111328125e+00,5.870753765106201172e+00,5.879124164581298828e+00,5.886803150177001953e+00,5.894479751586914062e+00,5.901443004608154297e+00,5.907935619354248047e+00,5.914382934570312500e+00,5.920614719390869141e+00,5.927130222320556641e+00,5.933287143707275391e+00,5.939309120178222656e+00,5.945037364959716797e+00,5.950485229492187500e+00,5.956426620483398438e+00,5.961740016937255859e+00,5.967111110687255859e+00,5.972521305084228516e+00,5.977588653564453125e+00,5.982748985290527344e+00,5.987212657928466797e+00,5.991318225860595703e+00,5.994787693023681641e+00,5.998369216918945312e+00,6.001359462738037109e+00,6.004605293273925781e+00,6.007112979888916016e+00,6.009978771209716797e+00,6.012542247772216797e+00,6.014546394348144531e+00,6.017204761505126953e+00,6.019395828247070312e+00,6.022584438323974609e+00,6.025357246398925781e+00,6.028420925140380859e+00,6.031271457672119141e+00,6.033388614654541016e+00,6.036479949951171875e+00,6.038426399230957031e+00,6.040104389190673828e+00,6.041445255279541016e+00,6.041847705841064453e+00,6.042426586151123047e+00,6.042191028594970703e+00,6.042772293090820312e+00,6.043688297271728516e+00,6.043616294860839844e+00,6.043303966522216797e+00,6.042282581329345703e+00,6.040985107421875000e+00,6.040613174438476562e+00,6.039557933807373047e+00,6.038153648376464844e+00,6.037070751190185547e+00,6.036091327667236328e+00,6.035163402557373047e+00,6.034116268157958984e+00,6.033451080322265625e+00,6.032360076904296875e+00,6.031854629516601562e+00,6.030495643615722656e+00,6.029253482818603516e+00,6.027607917785644531e+00,6.026144981384277344e+00,6.025272846221923828e+00,6.024321079254150391e+00,6.022860050201416016e+00,6.020943164825439453e+00,6.019393920898437500e+00,6.017890453338623047e+00,6.016032695770263672e+00,6.013726711273193359e+00,6.011381626129150391e+00,6.009515285491943359e+00
5.314982414245605469e+00,5.329053401947021484e+00,5.343348503112792969e+00,5.358049392700195312e+00,5.373373985290527344e+00,5.387802600860595703e+00,5.402707576751708984e+00,5.417282104492187500e+00,5.432153224945068359e+00,5.446748733520507812e+00,5.461282730102539062e+00,5.475118637084960938e+00,5.488092422485351562e+00,5.501453876495361328e+00,5.514393806457519531e+00,5.528256416320800781e+00,5.542216777801513672e+00,5.555615425109863281e+00,5.568476676940917969e+00,5.580685615539550781e+00,5.593023777008056641e+00,5.605929374694824219e+00,5.618195056915283203e+00,5.631051063537597656e+00,5.643768310546875000e+00,5.656521797180175781e+00,5.669661045074462891e+00,5.683144569396972656e+00,5.696303844451904297e+00,5.707962036132812500e+00,5.719403743743896484e+00,5.730116367340087891e+00,5.739912509918212891e+00,5.750170230865478516e+00,5.760057449340820312e+00,5.769953727722167969e+00,5.779615402221679688e+00,5.789090156555175781e+00,5.798549652099609375e+00,5.807026863098144531e+00,5.816321372985839844e+00,5.825397491455078125e+00,5.834506988525390625e+00,5.843438148498535156e+00,5.852200508117675781e+00,5.861010551452636719e+00,5.870145320892333984e+00,5.878612518310546875e+00,5.886281967163085938e+00,5.893873691558837891e+00,5.900850772857666016e+00,5.907465934753417969e+00,5.914156436920166016e+00,5.920942783355712891e+00,5.927645683288574219e+00,5.933918952941894531e+00,5.940206527709960938e+00,5.945800304412841797e+00,5.951201915740966797e+00,5.957037925720214844e+00,5.962495803833007812e+00,5.967967510223388672e+00,5.973415374755859375e+00,5.978928089141845703e+00,5.984354019165039062e+00,5.988956928253173828e+00,5.993387222290039062e+00,5.996837139129638672e+00,6.000244140625000000e+00,6.003405570983886719e+00,6.006474018096923828e+00,6.009284496307373047e+00,6.012498378753662109e+00,6.014951705932617188e+00,6.016872406005859375e+00,6.019164562225341797e+00,6.021213531494140625e+00,6.024147510528564453e+00,6.026585578918457031e+00,6.029617786407470703e+00,6.032376289367675781e+00,6.034875392913818359e+00,6.037834644317626953e+00,6.039846420288085938e+00,6.041741371154785156e+00,6.042694091796875000e+00,6.042811393737792969e+00,6.043423652648925781e+00,6.043480396270751953e+00,6.044004917144775391e+00,6.044808864593505859e+00,6.044946193695068359e+00,6.044693470001220703e+00,6.044023990631103516e+00,6.043008804321289062e+00,6.042846679687500000e+00,6.041974067687988281e+00,6.040985584259033203e+00,6.040083408355712891e+00,6.038668632507324219e+00,6.037915229797363281e+00,6.037063598632812500e+00,6.036466121673583984e+00,6.035579204559326172e+00,6.035255908966064453e+00,6.033669471740722656e+00,6.032435894012451172e+00,6.030990123748779297e+00,6.029294490814208984e+00,6.028131484985351562e+00,6.026928901672363281e+00,6.024993419647216797e+00,6.023046493530273438e+00,6.021253108978271484e+00,6.019217967987060547e+00,6.017388343811035156e+00,6.015339374542236328e+00,6.013186454772949219e+00,6.011210918426513672e+00
5.321107387542724609e+00,5.334908962249755859e+00,5.349174976348876953e+00,5.363662719726562500e+00,5.378309249877929688e+00,5.392550468444824219e+00,5.406527042388916016e+00,5.421355724334716797e+00,5.436194896697998047e+00,5.450481414794921875e+00,5.464833259582519531e+00,5.478451728820800781e+00,5.491641044616699219e+00,5.504904747009277344e+00,5.518138408660888672e+00,5.531707763671875000e+00,5.545227050781250000e+00,5.558284282684326172e+00,5.571023464202880859e+00,5.583065032958984375e+00,5.595604896545410156e+00,5.608609199523925781e+00,5.621061325073242188e+00,5.633904933929443359e+00,5.646471500396728516e+00,5.659068107604980469e+00,5.671970367431640625e+00,5.685187816619873047e+00,5.697733879089355469e+00,5.709038734436035156e+00,5.720508575439453125e+00,5.730723857879638672e+00,5.740396022796630859e+00,5.750472545623779297e+00,5.759763717651367188e+00,5.769402980804443359e+00,5.779013156890869141e+00,5.788409233093261719e+00,5.797851085662841797e+00,5.806375503540039062e+00,5.815579414367675781e+00,5.824799060821533203e+00,5.834134101867675781e+00,5.843266010284423828e+00,5.852189540863037109e+00,5.861101627349853516e+00,5.870237350463867188e+00,5.878627300262451172e+00,5.886445522308349609e+00,5.893944740295410156e+00,5.900966644287109375e+00,5.907944202423095703e+00,5.914544582366943359e+00,5.921569824218750000e+00,5.928545951843261719e+00,5.934984683990478516e+00,5.941236019134521484e+00,5.946943283081054688e+00,5.952666759490966797e+00,5.958514213562011719e+00,5.964061260223388672e+00,5.969738006591796875e+00,5.975440025329589844e+00,5.980868339538574219e+00,5.986219406127929688e+00,5.991353034973144531e+00,5.995781898498535156e+00,5.999501228332519531e+00,6.002973556518554688e+00,6.005873203277587891e+00,6.009098529815673828e+00,6.012043952941894531e+00,6.015178680419921875e+00,6.017711639404296875e+00,6.019458770751953125e+00,6.021661758422851562e+00,6.024149894714355469e+00,6.027166843414306641e+00,6.029641628265380859e+00,6.032426834106445312e+00,6.035034179687500000e+00,6.037250518798828125e+00,6.040354728698730469e+00,6.042277812957763672e+00,6.043338775634765625e+00,6.044034481048583984e+00,6.044655323028564453e+00,6.045069694519042969e+00,6.045277118682861328e+00,6.045737266540527344e+00,6.046538829803466797e+00,6.046950817108154297e+00,6.047097682952880859e+00,6.046160697937011719e+00,6.045511245727539062e+00,6.045574188232421875e+00,6.044577598571777344e+00,6.043487548828125000e+00,6.042613029479980469e+00,6.041396617889404297e+00,6.041072368621826172e+00,6.040571689605712891e+00,6.040254592895507812e+00,6.039651393890380859e+00,6.039320468902587891e+00,6.038150787353515625e+00,6.036722183227539062e+00,6.035239696502685547e+00,6.033314228057861328e+00,6.031894683837890625e+00,6.030591011047363281e+00,6.028491020202636719e+00,6.025951385498046875e+00,6.023804187774658203e+00,6.021443367004394531e+00,6.019380092620849609e+00,6.017461776733398438e+00,6.015628814697265625e+00,6.013910293579101562e+00
5.325624942779541016e+00,5.339180946350097656e+00,5.353239059448242188e+00,5.367539882659912109e+00,5.381696701049804688e+00,5.395468235015869141e+00,5.409518241882324219e+00,5.424119949340820312e+00,5.439129829406738281e+00,5.453378200531005859e+00,5.467539787292480469e+00,5.481046676635742188e+00,5.493883132934570312e+00,5.506912708282470703e+00,5.519803524017333984e+00,5.532969951629638672e+00,5.546081542968750000e+00,5.559204101562500000e+00,5.571941375732421875e+00,5.584016323089599609e+00,5.596399307250976562e+00,5.609019279479980469e+00,5.621613979339599609e+00,5.634508609771728516e+00,5.646903038024902344e+00,5.659852504730224609e+00,5.672494888305664062e+00,5.685364246368408203e+00,5.697658538818359375e+00,5.708590030670166016e+00,5.719751358032226562e+00,5.729841232299804688e+00,5.739548206329345703e+00,5.749582290649414062e+00,5.758991718292236328e+00,5.768427848815917969e+00,5.777963161468505859e+00,5.787427425384521484e+00,5.796757698059082031e+00,5.805559635162353516e+00,5.814766883850097656e+00,5.823904037475585938e+00,5.833154678344726562e+00,5.842376708984375000e+00,5.851613998413085938e+00,5.860579967498779297e+00,5.870021820068359375e+00,5.878746509552001953e+00,5.886404514312744141e+00,5.894171237945556641e+00,5.901351451873779297e+00,5.908517837524414062e+00,5.915756702423095703e+00,5.923069477081298828e+00,5.930201530456542969e+00,5.936841011047363281e+00,5.943451404571533203e+00,5.949653148651123047e+00,5.955324172973632812e+00,5.961204051971435547e+00,5.967320442199707031e+00,5.973011016845703125e+00,5.978760242462158203e+00,5.984658718109130859e+00,5.989940643310546875e+00,5.994805812835693359e+00,5.999278545379638672e+00,6.003428936004638672e+00,6.006898880004882812e+00,6.010176181793212891e+00,6.013176441192626953e+00,6.016130447387695312e+00,6.019059658050537109e+00,6.021296501159667969e+00,6.023417472839355469e+00,6.025200843811035156e+00,6.027897357940673828e+00,6.030402660369873047e+00,6.032934665679931641e+00,6.035671234130859375e+00,6.037842273712158203e+00,6.040464878082275391e+00,6.043179512023925781e+00,6.045055389404296875e+00,6.046021938323974609e+00,6.046935558319091797e+00,6.047443866729736328e+00,6.048337459564208984e+00,6.048524856567382812e+00,6.049221038818359375e+00,6.049872398376464844e+00,6.050099372863769531e+00,6.049914360046386719e+00,6.048991680145263672e+00,6.048208713531494141e+00,6.048316001892089844e+00,6.047548294067382812e+00,6.046652317047119141e+00,6.045765399932861328e+00,6.044636249542236328e+00,6.044213771820068359e+00,6.043712139129638672e+00,6.043237209320068359e+00,6.042590141296386719e+00,6.042232036590576172e+00,6.041338443756103516e+00,6.039875507354736328e+00,6.038650035858154297e+00,6.036806583404541016e+00,6.035042285919189453e+00,6.033526420593261719e+00,6.031090736389160156e+00,6.028546810150146484e+00,6.026139736175537109e+00,6.023478507995605469e+00,6.021087646484375000e+00,6.018737792968750000e+00,6.016957283020019531e+00,6.015337944030761719e+00
5.330839633941650391e+00,5.344341278076171875e+00,5.358129501342773438e+00,5.372296810150146484e+00,5.386193275451660156e+00,5.399554252624511719e+00,5.413350105285644531e+00,5.427536487579345703e+00,5.442277908325195312e+00,5.456307888031005859e+00,5.470052719116210938e+00,5.483369827270507812e+00,5.496113777160644531e+00,5.509089469909667969e+00,5.521800041198730469e+00,5.535017013549804688e+00,5.547804355621337891e+00,5.560554027557373047e+00,5.573132991790771484e+00,5.585155010223388672e+00,5.597619056701660156e+00,5.610251903533935547e+00,5.622805118560791016e+00,5.635714054107666016e+00,5.648214817047119141e+00,5.661152839660644531e+00,5.673684597015380859e+00,5.686479568481445312e+00,5.698431015014648438e+00,5.708972930908203125e+00,5.719868183135986328e+00,5.729618549346923828e+00,5.739221096038818359e+00,5.749031543731689453e+00,5.758535385131835938e+00,5.767805099487304688e+00,5.777289867401123047e+00,5.786765575408935547e+00,5.795920848846435547e+00,5.805027484893798828e+00,5.814150810241699219e+00,5.823431968688964844e+00,5.832881450653076172e+00,5.842320442199707031e+00,5.851640701293945312e+00,5.860599994659423828e+00,5.870053291320800781e+00,5.878537178039550781e+00,5.886395454406738281e+00,5.894331455230712891e+00,5.901932239532470703e+00,5.909501552581787109e+00,5.917039394378662109e+00,5.924539089202880859e+00,5.931894302368164062e+00,5.938959121704101562e+00,5.945676803588867188e+00,5.952130794525146484e+00,5.958096504211425781e+00,5.964020252227783203e+00,5.969946384429931641e+00,5.975725650787353516e+00,5.981617450714111328e+00,5.987638950347900391e+00,5.993188858032226562e+00,5.998180389404296875e+00,6.002645492553710938e+00,6.007058620452880859e+00,6.010561466217041016e+00,6.014243602752685547e+00,6.017134189605712891e+00,6.020069122314453125e+00,6.023416042327880859e+00,6.025444984436035156e+00,6.027711391448974609e+00,6.029325962066650391e+00,6.031480789184570312e+00,6.033446788787841797e+00,6.035695075988769531e+00,6.038077831268310547e+00,6.040443897247314453e+00,6.043120861053466797e+00,6.045798778533935547e+00,6.047963142395019531e+00,6.049221038818359375e+00,6.050249576568603516e+00,6.050933837890625000e+00,6.051519870758056641e+00,6.051947593688964844e+00,6.052488803863525391e+00,6.053000926971435547e+00,6.053100109100341797e+00,6.052671909332275391e+00,6.051785945892333984e+00,6.051116466522216797e+00,6.050999641418457031e+00,6.050312995910644531e+00,6.049315929412841797e+00,6.048395156860351562e+00,6.047504901885986328e+00,6.047022819519042969e+00,6.046481132507324219e+00,6.046107769012451172e+00,6.045376777648925781e+00,6.044804096221923828e+00,6.043967247009277344e+00,6.042964458465576172e+00,6.041828155517578125e+00,6.039888858795166016e+00,6.038140773773193359e+00,6.036428928375244141e+00,6.034142494201660156e+00,6.031385898590087891e+00,6.028875827789306641e+00,6.025930404663085938e+00,6.023310661315917969e+00,6.021122455596923828e+00,6.019039154052734375e+00,6.017060756683349609e+00
5.334918975830078125e+00,5.348486423492431641e+00,5.361842632293701172e+00,5.375630378723144531e+00,5.389481067657470703e+00,5.402451038360595703e+00,5.416116237640380859e+00,5.429981708526611328e+00,5.444149971008300781e+00,5.458139419555664062e+00,5.471592903137207031e+00,5.484636306762695312e+00,5.497071743011474609e+00,5.510140419006347656e+00,5.522857189178466797e+00,5.535632133483886719e+00,5.548299789428710938e+00,5.560801982879638672e+00,5.573316574096679688e+00,5.585555553436279297e+00,5.598065853118896484e+00,5.610700607299804688e+00,5.623354434967041016e+00,5.636182785034179688e+00,5.648545742034912109e+00,5.661409854888916016e+00,5.673983097076416016e+00,5.686449050903320312e+00,5.698139667510986328e+00,5.708372116088867188e+00,5.718935489654541016e+00,5.728629589080810547e+00,5.738187313079833984e+00,5.747890472412109375e+00,5.757191181182861328e+00,5.766267299652099609e+00,5.775569915771484375e+00,5.784859657287597656e+00,5.794270515441894531e+00,5.803159713745117188e+00,5.812334060668945312e+00,5.821727275848388672e+00,5.831320762634277344e+00,5.840857505798339844e+00,5.850389957427978516e+00,5.859608173370361328e+00,5.869028091430664062e+00,5.877643585205078125e+00,5.885685920715332031e+00,5.893604755401611328e+00,5.901443958282470703e+00,5.909556388854980469e+00,5.917335987091064453e+00,5.925259590148925781e+00,5.933055400848388672e+00,5.940226554870605469e+00,5.947334766387939453e+00,5.953934192657470703e+00,5.959784507751464844e+00,5.965998649597167969e+00,5.972060680389404297e+00,5.977979660034179688e+00,5.983838081359863281e+00,5.989819526672363281e+00,5.995273590087890625e+00,6.000028133392333984e+00,6.004722118377685547e+00,6.009209156036376953e+00,6.012985706329345703e+00,6.016536712646484375e+00,6.019428730010986328e+00,6.022379875183105469e+00,6.025074005126953125e+00,6.027292251586914062e+00,6.029492855072021484e+00,6.031194686889648438e+00,6.033297538757324219e+00,6.034891128540039062e+00,6.037068367004394531e+00,6.039103507995605469e+00,6.041684627532958984e+00,6.044060230255126953e+00,6.046410560607910156e+00,6.048411369323730469e+00,6.049495697021484375e+00,6.050678253173828125e+00,6.051699638366699219e+00,6.052262783050537109e+00,6.052855014801025391e+00,6.053578376770019531e+00,6.053970336914062500e+00,6.053828716278076172e+00,6.053726196289062500e+00,6.052767753601074219e+00,6.051830291748046875e+00,6.051910877227783203e+00,6.051210403442382812e+00,6.050087928771972656e+00,6.049492359161376953e+00,6.048862934112548828e+00,6.048221588134765625e+00,6.047791004180908203e+00,6.047507762908935547e+00,6.046877384185791016e+00,6.046895027160644531e+00,6.046082973480224609e+00,6.045139312744140625e+00,6.044335365295410156e+00,6.042625904083251953e+00,6.040960311889648438e+00,6.039084434509277344e+00,6.036619186401367188e+00,6.033595561981201172e+00,6.031140804290771484e+00,6.028119087219238281e+00,6.025223255157470703e+00,6.022891998291015625e+00,6.020712375640869141e+00,6.018375396728515625e+00
5.339373588562011719e+00,5.352516651153564453e+00,5.365596771240234375e+00,5.378807544708251953e+00,5.392231464385986328e+00,5.404763221740722656e+00,5.418346405029296875e+00,5.431902408599853516e+00,5.445552825927734375e+00,5.459588050842285156e+00,5.472755908966064453e+00,5.485375404357910156e+00,5.497652530670166016e+00,5.510539054870605469e+00,5.522810459136962891e+00,5.535320281982421875e+00,5.548084259033203125e+00,5.560517787933349609e+00,5.573150634765625000e+00,5.585462570190429688e+00,5.597872734069824219e+00,5.610533237457275391e+00,5.623149394989013672e+00,5.635730743408203125e+00,5.648012161254882812e+00,5.661071777343750000e+00,5.673464298248291016e+00,5.685717582702636719e+00,5.697337627410888672e+00,5.707325458526611328e+00,5.717603683471679688e+00,5.727246761322021484e+00,5.736598491668701172e+00,5.746119499206542969e+00,5.755228996276855469e+00,5.764136791229248047e+00,5.773298263549804688e+00,5.782534599304199219e+00,5.792013168334960938e+00,5.801416397094726562e+00,5.810482025146484375e+00,5.819830417633056641e+00,5.829329967498779297e+00,5.839205265045166016e+00,5.848601818084716797e+00,5.857936382293701172e+00,5.867817878723144531e+00,5.876642227172851562e+00,5.884715557098388672e+00,5.892754077911376953e+00,5.900719642639160156e+00,5.908936977386474609e+00,5.917414665222167969e+00,5.925875186920166016e+00,5.933957099914550781e+00,5.941475391387939453e+00,5.948830604553222656e+00,5.955285072326660156e+00,5.961340904235839844e+00,5.967794418334960938e+00,5.973468780517578125e+00,5.979474544525146484e+00,5.985316753387451172e+00,5.991098403930664062e+00,5.996544837951660156e+00,6.001421928405761719e+00,6.006179809570312500e+00,6.010655403137207031e+00,6.014812469482421875e+00,6.018489837646484375e+00,6.021323204040527344e+00,6.024486064910888672e+00,6.026945114135742188e+00,6.028943538665771484e+00,6.031068801879882812e+00,6.032415390014648438e+00,6.033966064453125000e+00,6.035261631011962891e+00,6.037340641021728516e+00,6.039526462554931641e+00,6.042082309722900391e+00,6.044509887695312500e+00,6.046844959259033203e+00,6.048641204833984375e+00,6.049368381500244141e+00,6.050726413726806641e+00,6.051425933837890625e+00,6.052688598632812500e+00,6.053562164306640625e+00,6.053905010223388672e+00,6.054476261138916016e+00,6.054455757141113281e+00,6.054273128509521484e+00,6.053442001342773438e+00,6.052348613739013672e+00,6.052503108978271484e+00,6.051918506622314453e+00,6.050953865051269531e+00,6.050578117370605469e+00,6.050035476684570312e+00,6.049730777740478516e+00,6.049077033996582031e+00,6.048754692077636719e+00,6.048440933227539062e+00,6.048115730285644531e+00,6.047222137451171875e+00,6.046929359436035156e+00,6.046242713928222656e+00,6.044659614562988281e+00,6.043169498443603516e+00,6.040975570678710938e+00,6.038136005401611328e+00,6.035029888153076172e+00,6.032349109649658203e+00,6.029406547546386719e+00,6.026414871215820312e+00,6.023914337158203125e+00,6.021585464477539062e+00,6.019563198089599609e+00
5.343640327453613281e+00,5.356503963470458984e+00,5.369166851043701172e+00,5.382031440734863281e+00,5.394997596740722656e+00,5.407330989837646484e+00,5.420604228973388672e+00,5.434059619903564453e+00,5.447228908538818359e+00,5.460632801055908203e+00,5.473247051239013672e+00,5.485418319702148438e+00,5.497449874877929688e+00,5.509838104248046875e+00,5.522080898284912109e+00,5.534702301025390625e+00,5.547465801239013672e+00,5.559964656829833984e+00,5.572697162628173828e+00,5.585017681121826172e+00,5.597296237945556641e+00,5.610042095184326172e+00,5.622436523437500000e+00,5.634998798370361328e+00,5.647619724273681641e+00,5.660416126251220703e+00,5.672722339630126953e+00,5.684916973114013672e+00,5.696193218231201172e+00,5.706377506256103516e+00,5.716641902923583984e+00,5.726361751556396484e+00,5.735755443572998047e+00,5.745291233062744141e+00,5.754301071166992188e+00,5.763200283050537109e+00,5.772309780120849609e+00,5.781280517578125000e+00,5.790836811065673828e+00,5.800554752349853516e+00,5.810143947601318359e+00,5.819649219512939453e+00,5.829099178314208984e+00,5.838677406311035156e+00,5.848386287689208984e+00,5.858080863952636719e+00,5.867969512939453125e+00,5.876910209655761719e+00,5.885406494140625000e+00,5.893507003784179688e+00,5.901693820953369141e+00,5.909933090209960938e+00,5.918150424957275391e+00,5.926821708679199219e+00,5.934953212738037109e+00,5.942513942718505859e+00,5.949865341186523438e+00,5.956147670745849609e+00,5.962308883666992188e+00,5.968444824218750000e+00,5.974456787109375000e+00,5.980149745941162109e+00,5.985927581787109375e+00,5.992023944854736328e+00,5.997617244720458984e+00,6.002458095550537109e+00,6.007586002349853516e+00,6.011620998382568359e+00,6.015841007232666016e+00,6.019779205322265625e+00,6.022774696350097656e+00,6.025936126708984375e+00,6.028378486633300781e+00,6.030549526214599609e+00,6.032637119293212891e+00,6.033996582031250000e+00,6.035552501678466797e+00,6.036831855773925781e+00,6.038772583007812500e+00,6.040889263153076172e+00,6.043589591979980469e+00,6.045697212219238281e+00,6.047986030578613281e+00,6.049864292144775391e+00,6.050804615020751953e+00,6.051995754241943359e+00,6.053007602691650391e+00,6.054019927978515625e+00,6.054687500000000000e+00,6.055023670196533203e+00,6.055583953857421875e+00,6.055599212646484375e+00,6.055288314819335938e+00,6.054352283477783203e+00,6.052881240844726562e+00,6.052577018737792969e+00,6.051980018615722656e+00,6.050997257232666016e+00,6.050743579864501953e+00,6.050055027008056641e+00,6.049622058868408203e+00,6.049109935760498047e+00,6.049093723297119141e+00,6.048997402191162109e+00,6.048819541931152344e+00,6.047954559326171875e+00,6.047358989715576172e+00,6.046513557434082031e+00,6.045156478881835938e+00,6.043787956237792969e+00,6.041585922241210938e+00,6.038438320159912109e+00,6.035035610198974609e+00,6.032235622406005859e+00,6.029291152954101562e+00,6.026469707489013672e+00,6.023633480072021484e+00,6.021457672119140625e+00,6.019481182098388672e+00
5.348148822784423828e+00,5.360287666320800781e+00,5.372553825378417969e+00,5.385208129882812500e+00,5.397678375244140625e+00,5.409862518310546875e+00,5.422823905944824219e+00,5.435883045196533203e+00,5.448827743530273438e+00,5.461823940277099609e+00,5.474000930786132812e+00,5.485535144805908203e+00,5.497071743011474609e+00,5.508879184722900391e+00,5.520969867706298828e+00,5.533504009246826172e+00,5.546406745910644531e+00,5.559034347534179688e+00,5.571967124938964844e+00,5.584442138671875000e+00,5.596593856811523438e+00,5.609189033508300781e+00,5.621599197387695312e+00,5.634318828582763672e+00,5.646850585937500000e+00,5.659425735473632812e+00,5.671669960021972656e+00,5.683586597442626953e+00,5.694885730743408203e+00,5.705156803131103516e+00,5.715395927429199219e+00,5.725246429443359375e+00,5.734710693359375000e+00,5.744417667388916016e+00,5.753551483154296875e+00,5.762529850006103516e+00,5.771726131439208984e+00,5.780729293823242188e+00,5.790331840515136719e+00,5.799843311309814453e+00,5.809499740600585938e+00,5.819349288940429688e+00,5.829020977020263672e+00,5.838915824890136719e+00,5.848288536071777344e+00,5.858243465423583984e+00,5.868462562561035156e+00,5.877557754516601562e+00,5.886383533477783203e+00,5.894531726837158203e+00,5.902773380279541016e+00,5.911052703857421875e+00,5.919307708740234375e+00,5.927971839904785156e+00,5.936082839965820312e+00,5.943359375000000000e+00,5.950445175170898438e+00,5.956430435180664062e+00,5.962871551513671875e+00,5.969125270843505859e+00,5.975244045257568359e+00,5.981068134307861328e+00,5.986925601959228516e+00,5.993056774139404297e+00,5.998697280883789062e+00,6.003630161285400391e+00,6.008457660675048828e+00,6.012921810150146484e+00,6.017639636993408203e+00,6.021416664123535156e+00,6.024703979492187500e+00,6.027780055999755859e+00,6.030116558074951172e+00,6.032380580902099609e+00,6.034273147583007812e+00,6.035788059234619141e+00,6.037521362304687500e+00,6.038953781127929688e+00,6.040673255920410156e+00,6.042595863342285156e+00,6.045125007629394531e+00,6.047056198120117188e+00,6.049161911010742188e+00,6.050859451293945312e+00,6.051809310913085938e+00,6.052836894989013672e+00,6.053848266601562500e+00,6.054898262023925781e+00,6.055275917053222656e+00,6.055513381958007812e+00,6.056087017059326172e+00,6.056267738342285156e+00,6.055798530578613281e+00,6.054583549499511719e+00,6.052982807159423828e+00,6.052498817443847656e+00,6.051778793334960938e+00,6.050849437713623047e+00,6.050611495971679688e+00,6.050177574157714844e+00,6.050118446350097656e+00,6.049932479858398438e+00,6.049708366394042969e+00,6.049785614013671875e+00,6.049427032470703125e+00,6.048852920532226562e+00,6.048582553863525391e+00,6.047590732574462891e+00,6.046022891998291016e+00,6.044163227081298828e+00,6.041679859161376953e+00,6.038398265838623047e+00,6.034926891326904297e+00,6.031980037689208984e+00,6.028948307037353516e+00,6.026116847991943359e+00,6.023556709289550781e+00,6.021597385406494141e+00,6.019313812255859375e+00
5.352137565612792969e+00,5.363872051239013672e+00,5.376007080078125000e+00,5.388119697570800781e+00,5.400143623352050781e+00,5.412065982818603516e+00,5.424584388732910156e+00,5.437351703643798828e+00,5.450304031372070312e+00,5.462852001190185547e+00,5.474469661712646484e+00,5.485549449920654297e+00,5.496664524078369141e+00,5.508201122283935547e+00,5.519878387451171875e+00,5.532209873199462891e+00,5.544954776763916016e+00,5.557971000671386719e+00,5.571175575256347656e+00,5.583750724792480469e+00,5.596082687377929688e+00,5.608838558197021484e+00,5.621326923370361328e+00,5.634144783020019531e+00,5.646798133850097656e+00,5.659263134002685547e+00,5.671414852142333984e+00,5.683391094207763672e+00,5.694511890411376953e+00,5.704892158508300781e+00,5.715287685394287109e+00,5.724909782409667969e+00,5.734465122222900391e+00,5.744276523590087891e+00,5.753437995910644531e+00,5.762434005737304688e+00,5.771850109100341797e+00,5.780987739562988281e+00,5.790549278259277344e+00,5.800118923187255859e+00,5.809662342071533203e+00,5.819815158843994141e+00,5.829737663269042969e+00,5.839795112609863281e+00,5.849477767944335938e+00,5.859098434448242188e+00,5.869323730468750000e+00,5.878753185272216797e+00,5.887710094451904297e+00,5.896050930023193359e+00,5.904303550720214844e+00,5.912460803985595703e+00,5.920465469360351562e+00,5.929087638854980469e+00,5.937112808227539062e+00,5.944285869598388672e+00,5.951484203338623047e+00,5.957733154296875000e+00,5.964033603668212891e+00,5.970347881317138672e+00,5.976594924926757812e+00,5.982678413391113281e+00,5.988931655883789062e+00,5.995326519012451172e+00,6.000607490539550781e+00,6.005593299865722656e+00,6.010608673095703125e+00,6.015027046203613281e+00,6.019392013549804688e+00,6.023123741149902344e+00,6.026683330535888672e+00,6.029528617858886719e+00,6.031994819641113281e+00,6.034150600433349609e+00,6.035948276519775391e+00,6.037436485290527344e+00,6.038940906524658203e+00,6.040311813354492188e+00,6.041719913482666016e+00,6.043474674224853516e+00,6.045626640319824219e+00,6.047529697418212891e+00,6.049352645874023438e+00,6.050882339477539062e+00,6.051842689514160156e+00,6.052950859069824219e+00,6.053834438323974609e+00,6.054894924163818359e+00,6.055304527282714844e+00,6.055502414703369141e+00,6.056199550628662109e+00,6.056635856628417969e+00,6.056099414825439453e+00,6.055084705352783203e+00,6.053662776947021484e+00,6.052910804748535156e+00,6.052337169647216797e+00,6.051798820495605469e+00,6.051901340484619141e+00,6.051910400390625000e+00,6.052328586578369141e+00,6.052250385284423828e+00,6.052298545837402344e+00,6.052315711975097656e+00,6.051943778991699219e+00,6.051678657531738281e+00,6.051357269287109375e+00,6.049941539764404297e+00,6.048295974731445312e+00,6.046327114105224609e+00,6.044016838073730469e+00,6.040750503540039062e+00,6.037372589111328125e+00,6.034439086914062500e+00,6.031562328338623047e+00,6.028512954711914062e+00,6.026114463806152344e+00,6.024049282073974609e+00,6.021392345428466797e+00
5.355682849884033203e+00,5.367393970489501953e+00,5.379285812377929688e+00,5.391100406646728516e+00,5.402729511260986328e+00,5.414319038391113281e+00,5.426524162292480469e+00,5.438864707946777344e+00,5.451576709747314453e+00,5.463426113128662109e+00,5.474798679351806641e+00,5.485626220703125000e+00,5.496314048767089844e+00,5.507760047912597656e+00,5.519235134124755859e+00,5.531343460083007812e+00,5.544125556945800781e+00,5.557057380676269531e+00,5.570353507995605469e+00,5.583398818969726562e+00,5.595925331115722656e+00,5.608889579772949219e+00,5.621683120727539062e+00,5.634588241577148438e+00,5.647319793701171875e+00,5.659757614135742188e+00,5.671811580657958984e+00,5.683794021606445312e+00,5.694936752319335938e+00,5.705406665802001953e+00,5.715809345245361328e+00,5.725455284118652344e+00,5.735022544860839844e+00,5.744709491729736328e+00,5.753877162933349609e+00,5.762917995452880859e+00,5.772424697875976562e+00,5.781558990478515625e+00,5.791032791137695312e+00,5.800745964050292969e+00,5.810192108154296875e+00,5.820345878601074219e+00,5.830529689788818359e+00,5.840940952301025391e+00,5.850942611694335938e+00,5.860497951507568359e+00,5.870888710021972656e+00,5.880206108093261719e+00,5.889336585998535156e+00,5.897951602935791016e+00,5.906338691711425781e+00,5.914201259613037109e+00,5.922375679016113281e+00,5.930806159973144531e+00,5.938755512237548828e+00,5.946092128753662109e+00,5.952998161315917969e+00,5.959232330322265625e+00,5.965384960174560547e+00,5.971851825714111328e+00,5.978188514709472656e+00,5.984438896179199219e+00,5.990915298461914062e+00,5.997454643249511719e+00,6.003073215484619141e+00,6.008177280426025391e+00,6.013248920440673828e+00,6.017390727996826172e+00,6.021864414215087891e+00,6.025377750396728516e+00,6.029039382934570312e+00,6.032066822052001953e+00,6.034534454345703125e+00,6.036515712738037109e+00,6.038245677947998047e+00,6.039644718170166016e+00,6.040915012359619141e+00,6.042359828948974609e+00,6.043357372283935547e+00,6.044878005981445312e+00,6.046909809112548828e+00,6.048305034637451172e+00,6.049956798553466797e+00,6.051182270050048828e+00,6.051977634429931641e+00,6.053122043609619141e+00,6.053689956665039062e+00,6.054769992828369141e+00,6.055660247802734375e+00,6.056083202362060547e+00,6.056985855102539062e+00,6.057689666748046875e+00,6.057192802429199219e+00,6.056254863739013672e+00,6.054704189300537109e+00,6.053983688354492188e+00,6.053836822509765625e+00,6.053253650665283203e+00,6.053623199462890625e+00,6.054103851318359375e+00,6.054746150970458984e+00,6.055164813995361328e+00,6.055248260498046875e+00,6.055535793304443359e+00,6.055330753326416016e+00,6.054738998413085938e+00,6.054426670074462891e+00,6.052954196929931641e+00,6.051343441009521484e+00,6.049220085144042969e+00,6.046878814697265625e+00,6.043921470642089844e+00,6.040399551391601562e+00,6.037631034851074219e+00,6.034858226776123047e+00,6.031991004943847656e+00,6.029405593872070312e+00,6.026853561401367188e+00,6.024158954620361328e+00
5.359685897827148438e+00,5.371399402618408203e+00,5.383137702941894531e+00,5.394659519195556641e+00,5.405920028686523438e+00,5.417177200317382812e+00,5.428930759429931641e+00,5.440568447113037109e+00,5.452795028686523438e+00,5.464370727539062500e+00,5.475749492645263672e+00,5.486378192901611328e+00,5.496829032897949219e+00,5.508180141448974609e+00,5.519271850585937500e+00,5.531271457672119141e+00,5.544002532958984375e+00,5.556945323944091797e+00,5.570305824279785156e+00,5.583356857299804688e+00,5.595894336700439453e+00,5.608892440795898438e+00,5.621989250183105469e+00,5.635066032409667969e+00,5.647493362426757812e+00,5.659992218017578125e+00,5.671926498413085938e+00,5.683749198913574219e+00,5.695040702819824219e+00,5.705117225646972656e+00,5.715573310852050781e+00,5.725293159484863281e+00,5.734856605529785156e+00,5.744392871856689453e+00,5.753749847412109375e+00,5.762957572937011719e+00,5.772386550903320312e+00,5.781943798065185547e+00,5.791395664215087891e+00,5.801208019256591797e+00,5.810734748840332031e+00,5.821168422698974609e+00,5.831688404083251953e+00,5.842766761779785156e+00,5.852994441986083984e+00,5.862814426422119141e+00,5.873306274414062500e+00,5.882531642913818359e+00,5.891501903533935547e+00,5.899848461151123047e+00,5.908126831054687500e+00,5.916191577911376953e+00,5.924238204956054688e+00,5.932564735412597656e+00,5.940670013427734375e+00,5.948171615600585938e+00,5.955136775970458984e+00,5.961511611938476562e+00,5.967701435089111328e+00,5.974439620971679688e+00,5.980999946594238281e+00,5.987322807312011719e+00,5.993908882141113281e+00,6.000508308410644531e+00,6.006465435028076172e+00,6.011876106262207031e+00,6.016865253448486328e+00,6.021328926086425781e+00,6.025794029235839844e+00,6.029184341430664062e+00,6.032655715942382812e+00,6.035508632659912109e+00,6.037966728210449219e+00,6.040143489837646484e+00,6.041912078857421875e+00,6.043092727661132812e+00,6.044158458709716797e+00,6.045301437377929688e+00,6.046196937561035156e+00,6.047955513000488281e+00,6.049675941467285156e+00,6.051174163818359375e+00,6.052676200866699219e+00,6.053628921508789062e+00,6.054021835327148438e+00,6.055030345916748047e+00,6.055770874023437500e+00,6.056745052337646484e+00,6.057499885559082031e+00,6.058109283447265625e+00,6.059207916259765625e+00,6.059906005859375000e+00,6.059445381164550781e+00,6.058400154113769531e+00,6.056793212890625000e+00,6.056338310241699219e+00,6.056199550628662109e+00,6.055655002593994141e+00,6.055982112884521484e+00,6.056500434875488281e+00,6.057325363159179688e+00,6.057710170745849609e+00,6.058111190795898438e+00,6.058393955230712891e+00,6.057991504669189453e+00,6.057804107666015625e+00,6.057341098785400391e+00,6.056054592132568359e+00,6.054548263549804688e+00,6.052810192108154297e+00,6.050371646881103516e+00,6.047221660614013672e+00,6.043897628784179688e+00,6.041052341461181641e+00,6.038447380065917969e+00,6.035467147827148438e+00,6.033201217651367188e+00,6.030358791351318359e+00,6.027341842651367188e+00
5.362918853759765625e+00,5.374528884887695312e+00,5.386273860931396484e+00,5.397528171539306641e+00,5.408587455749511719e+00,5.419429302215576172e+00,5.430594444274902344e+00,5.441772460937500000e+00,5.453692436218261719e+00,5.465033531188964844e+00,5.476115703582763672e+00,5.486559867858886719e+00,5.496899604797363281e+00,5.508256912231445312e+00,5.519227504730224609e+00,5.531212806701660156e+00,5.543954372406005859e+00,5.556746959686279297e+00,5.570154190063476562e+00,5.582769870758056641e+00,5.595205307006835938e+00,5.608158588409423828e+00,5.621300220489501953e+00,5.634420394897460938e+00,5.646868228912353516e+00,5.659538745880126953e+00,5.671616077423095703e+00,5.683523654937744141e+00,5.694539070129394531e+00,5.704365730285644531e+00,5.714843273162841797e+00,5.724569320678710938e+00,5.734222888946533203e+00,5.743844032287597656e+00,5.753309249877929688e+00,5.762606143951416016e+00,5.772214889526367188e+00,5.782022476196289062e+00,5.791531562805175781e+00,5.801521778106689453e+00,5.811179637908935547e+00,5.821871757507324219e+00,5.832715034484863281e+00,5.844066143035888672e+00,5.854897975921630859e+00,5.864777088165283203e+00,5.875361919403076172e+00,5.884344577789306641e+00,5.893455028533935547e+00,5.901843070983886719e+00,5.909881591796875000e+00,5.917663574218750000e+00,5.925897121429443359e+00,5.934138774871826172e+00,5.942296981811523438e+00,5.950057506561279297e+00,5.956861495971679688e+00,5.963430881500244141e+00,5.969970226287841797e+00,5.976652145385742188e+00,5.983376026153564453e+00,5.990025520324707031e+00,5.996696949005126953e+00,6.003324985504150391e+00,6.009408950805664062e+00,6.014968395233154297e+00,6.020066738128662109e+00,6.024732112884521484e+00,6.028972148895263672e+00,6.032422065734863281e+00,6.036078929901123047e+00,6.038828849792480469e+00,6.041316509246826172e+00,6.043552875518798828e+00,6.045236587524414062e+00,6.046149253845214844e+00,6.047225952148437500e+00,6.048337459564208984e+00,6.049213886260986328e+00,6.050822257995605469e+00,6.052328586578369141e+00,6.053403854370117188e+00,6.054834365844726562e+00,6.055639743804931641e+00,6.056013584136962891e+00,6.057058334350585938e+00,6.057656764984130859e+00,6.058529853820800781e+00,6.059432983398437500e+00,6.060111522674560547e+00,6.061201572418212891e+00,6.061812877655029297e+00,6.061621189117431641e+00,6.060708045959472656e+00,6.058984756469726562e+00,6.058332920074462891e+00,6.058211803436279297e+00,6.057600021362304688e+00,6.058038711547851562e+00,6.058364391326904297e+00,6.059235095977783203e+00,6.059884071350097656e+00,6.060440063476562500e+00,6.061039924621582031e+00,6.060898303985595703e+00,6.060607910156250000e+00,6.060461521148681641e+00,6.059298038482666016e+00,6.057983875274658203e+00,6.056307315826416016e+00,6.053862094879150391e+00,6.051037788391113281e+00,6.047736167907714844e+00,6.045024394989013672e+00,6.042353630065917969e+00,6.039417266845703125e+00,6.036736965179443359e+00,6.033680438995361328e+00,6.030745983123779297e+00
