2.157200098037719727e+00,2.164007186889648438e+00,2.175198316574096680e+00,2.218622207641601562e+00,2.228470087051391602e+00,2.243729114532470703e+00,2.244155168533325195e+00,2.249219894409179688e+00,2.255853414535522461e+00,2.264631748199462891e+00,2.304445028305053711e+00,2.311543464660644531e+00,2.324625730514526367e+00,2.332095146179199219e+00,2.344079017639160156e+00,2.348137140274047852e+00,2.351849794387817383e+00,2.355613470077514648e+00,2.359331130981445312e+00,2.361102342605590820e+00,2.362652778625488281e+00,2.363757848739624023e+00,2.364910364151000977e+00,2.364932775497436523e+00,2.365049839019775391e+00,2.365349769592285156e+00,2.366681098937988281e+00,2.367970466613769531e+00,2.369488477706909180e+00,2.372005224227905273e+00,2.374745130538940430e+00,2.377220630645751953e+00,2.380470991134643555e+00,2.383302211761474609e+00,2.384886741638183594e+00,2.380120992660522461e+00,2.346851587295532227e+00,2.337244987487792969e+00,2.323128223419189453e+00,2.338299989700317383e+00,2.344427108764648438e+00,2.344943284988403320e+00,2.344561815261840820e+00,2.344469785690307617e+00,2.344763994216918945e+00,2.344408512115478516e+00,2.343862771987915039e+00,2.344318628311157227e+00,2.344818353652954102e+00,2.345495462417602539e+00,2.346533298492431641e+00,2.347704887390136719e+00,2.349360704421997070e+00,2.351749181747436523e+00,2.354064226150512695e+00,2.357328653335571289e+00,2.360241889953613281e+00,2.363432168960571289e+00,2.366557359695434570e+00,2.369450569152832031e+00,2.372469663619995117e+00,2.374959230422973633e+00,2.377036809921264648e+00,2.378919601440429688e+00,2.380434989929199219e+00,2.382286310195922852e+00,2.383936405181884766e+00,2.384698629379272461e+00,2.385493993759155273e+00,2.386778116226196289e+00,2.389010429382324219e+00,2.392238616943359375e+00,2.395471334457397461e+00,2.399400472640991211e+00,2.404464244842529297e+00,2.410390853881835938e+00,2.415863990783691406e+00,2.419606447219848633e+00,2.422600507736206055e+00,2.423431634902954102e+00,2.419680833816528320e+00,2.414171695709228516e+00,2.422749996185302734e+00,2.439941883087158203e+00,2.466433763504028320e+00,2.473587512969970703e+00,2.476895570755004883e+00,2.476739883422851562e+00,2.478436470031738281e+00,2.480960607528686523e+00,2.483863592147827148e+00,2.485791206359863281e+00,2.487894058227539062e+00,2.487177371978759766e+00,2.488549947738647461e+00,2.495310783386230469e+00,2.507729291915893555e+00,2.572032451629638672e+00,2.626256704330444336e+00,2.644283533096313477e+00,2.635984420776367188e+00,2.656729221343994141e+00,2.683024406433105469e+00,2.684738159179687500e+00,2.687346220016479492e+00,2.691694974899291992e+00,2.697647809982299805e+00,2.701745510101318359e+00,2.706112623214721680e+00,2.710075616836547852e+00,2.713238477706909180e+00,2.714360237121582031e+00,2.715861320495605469e+00,2.717149734497070312e+00,2.717746019363403320e+00,2.718253135681152344e+00,2.717029333114624023e+00,2.716796159744262695e+00,2.715921640396118164e+00
2.155970335006713867e+00,2.160586595535278320e+00,2.172295093536376953e+00,2.219441413879394531e+00,2.228454351425170898e+00,2.238882064819335938e+00,2.241497993469238281e+00,2.244542598724365234e+00,2.250394105911254883e+00,2.257915735244750977e+00,2.297255754470825195e+00,2.306260108947753906e+00,2.319365978240966797e+00,2.326688766479492188e+00,2.339079141616821289e+00,2.345951318740844727e+00,2.350628614425659180e+00,2.355132818222045898e+00,2.359984636306762695e+00,2.362502813339233398e+00,2.363696098327636719e+00,2.365626096725463867e+00,2.367223739624023438e+00,2.367424726486206055e+00,2.368224382400512695e+00,2.368482828140258789e+00,2.369486570358276367e+00,2.370183944702148438e+00,2.371584415435791016e+00,2.374238729476928711e+00,2.376496076583862305e+00,2.378783226013183594e+00,2.381198883056640625e+00,2.384749650955200195e+00,2.386707305908203125e+00,2.382711410522460938e+00,2.347900867462158203e+00,2.337861537933349609e+00,2.327363491058349609e+00,2.338137149810791016e+00,2.348968982696533203e+00,2.349930047988891602e+00,2.348406314849853516e+00,2.347675085067749023e+00,2.347910404205322266e+00,2.347033500671386719e+00,2.346121072769165039e+00,2.346305131912231445e+00,2.346832036972045898e+00,2.347441673278808594e+00,2.348440647125244141e+00,2.349814653396606445e+00,2.351500511169433594e+00,2.353970289230346680e+00,2.356309890747070312e+00,2.359529972076416016e+00,2.362228631973266602e+00,2.365468502044677734e+00,2.368677139282226562e+00,2.371443748474121094e+00,2.374449968338012695e+00,2.376616716384887695e+00,2.378537178039550781e+00,2.380366325378417969e+00,2.381922721862792969e+00,2.383841514587402344e+00,2.385678529739379883e+00,2.386577367782592773e+00,2.387335777282714844e+00,2.388744115829467773e+00,2.390877723693847656e+00,2.393850803375244141e+00,2.397305250167846680e+00,2.400975704193115234e+00,2.405549764633178711e+00,2.411225795745849609e+00,2.416663646697998047e+00,2.419848442077636719e+00,2.423568487167358398e+00,2.424680709838867188e+00,2.420751094818115234e+00,2.413408994674682617e+00,2.421515703201293945e+00,2.438599109649658203e+00,2.464018106460571289e+00,2.470305919647216797e+00,2.475280523300170898e+00,2.475341320037841797e+00,2.477559089660644531e+00,2.480698108673095703e+00,2.483483076095581055e+00,2.486494302749633789e+00,2.488599300384521484e+00,2.488208055496215820e+00,2.488224267959594727e+00,2.492819786071777344e+00,2.499983310699462891e+00,2.568612575531005859e+00,2.623219490051269531e+00,2.645136117935180664e+00,2.635191679000854492e+00,2.656429529190063477e+00,2.687929153442382812e+00,2.687825202941894531e+00,2.689506769180297852e+00,2.693914175033569336e+00,2.700210571289062500e+00,2.704158306121826172e+00,2.709316492080688477e+00,2.713232517242431641e+00,2.716269016265869141e+00,2.717592239379882812e+00,2.718827486038208008e+00,2.719766855239868164e+00,2.720148324966430664e+00,2.720452308654785156e+00,2.719057083129882812e+00,2.718910455703735352e+00,2.717681169509887695e+00
2.154091835021972656e+00,2.157364845275878906e+00,2.168031454086303711e+00,2.217818260192871094e+00,2.227187871932983398e+00,2.235659837722778320e+00,2.238688707351684570e+00,2.240378618240356445e+00,2.245385885238647461e+00,2.251873254776000977e+00,2.289988040924072266e+00,2.301302671432495117e+00,2.314930200576782227e+00,2.319780349731445312e+00,2.334416389465332031e+00,2.340342760086059570e+00,2.347555398941040039e+00,2.352916002273559570e+00,2.359888792037963867e+00,2.363368988037109375e+00,2.365459203720092773e+00,2.367086410522460938e+00,2.368806362152099609e+00,2.369410514831542969e+00,2.370521783828735352e+00,2.371021270751953125e+00,2.371765851974487305e+00,2.372270584106445312e+00,2.374202728271484375e+00,2.376068592071533203e+00,2.378295183181762695e+00,2.379870176315307617e+00,2.382016658782958984e+00,2.386665582656860352e+00,2.390404224395751953e+00,2.384944677352905273e+00,2.347694635391235352e+00,2.336266040802001953e+00,2.324536085128784180e+00,2.333328485488891602e+00,2.352807998657226562e+00,2.354129076004028320e+00,2.352133274078369141e+00,2.351637840270996094e+00,2.351028203964233398e+00,2.349762678146362305e+00,2.348869085311889648e+00,2.348611831665039062e+00,2.348522424697875977e+00,2.348999500274658203e+00,2.350126743316650391e+00,2.351613044738769531e+00,2.353407382965087891e+00,2.355934858322143555e+00,2.358308315277099609e+00,2.361520290374755859e+00,2.364196300506591797e+00,2.367463827133178711e+00,2.370690345764160156e+00,2.373431205749511719e+00,2.376455783843994141e+00,2.378550052642822266e+00,2.380322456359863281e+00,2.382087230682373047e+00,2.383497476577758789e+00,2.385353326797485352e+00,2.387304544448852539e+00,2.388322353363037109e+00,2.389192581176757812e+00,2.390798807144165039e+00,2.392753124237060547e+00,2.395544528961181641e+00,2.399166345596313477e+00,2.402701377868652344e+00,2.407427549362182617e+00,2.413110256195068359e+00,2.418066501617431641e+00,2.421905040740966797e+00,2.425639867782592773e+00,2.427138328552246094e+00,2.425588607788085938e+00,2.415068864822387695e+00,2.421768665313720703e+00,2.439535617828369141e+00,2.460811614990234375e+00,2.467043876647949219e+00,2.473231077194213867e+00,2.474289655685424805e+00,2.476567506790161133e+00,2.479943037033081055e+00,2.483238458633422852e+00,2.486286163330078125e+00,2.487962722778320312e+00,2.487185239791870117e+00,2.485793590545654297e+00,2.488147020339965820e+00,2.493484020233154297e+00,2.566107749938964844e+00,2.622688055038452148e+00,2.647351741790771484e+00,2.635518074035644531e+00,2.658273220062255859e+00,2.692280292510986328e+00,2.691267013549804688e+00,2.692769765853881836e+00,2.697127103805541992e+00,2.703321456909179688e+00,2.707330226898193359e+00,2.712327957153320312e+00,2.715468645095825195e+00,2.718585729598999023e+00,2.719993829727172852e+00,2.721118688583374023e+00,2.722287654876708984e+00,2.722539663314819336e+00,2.722690343856811523e+00,2.721257925033569336e+00,2.720899105072021484e+00,2.719797372817993164e+00
2.148602485656738281e+00,2.150095462799072266e+00,2.158626794815063477e+00,2.209265947341918945e+00,2.221300840377807617e+00,2.229355335235595703e+00,2.232340812683105469e+00,2.233424901962280273e+00,2.238239526748657227e+00,2.243435621261596680e+00,2.279141902923583984e+00,2.293080806732177734e+00,2.307588338851928711e+00,2.309910535812377930e+00,2.326380968093872070e+00,2.332427263259887695e+00,2.337957620620727539e+00,2.343022108078002930e+00,2.354066848754882812e+00,2.359078168869018555e+00,2.362126827239990234e+00,2.364452362060546875e+00,2.366890668869018555e+00,2.368044614791870117e+00,2.369682788848876953e+00,2.370244264602661133e+00,2.371391534805297852e+00,2.371783494949340820e+00,2.372828245162963867e+00,2.374783992767333984e+00,2.377006769180297852e+00,2.378381252288818359e+00,2.380834579467773438e+00,2.385060310363769531e+00,2.389704227447509766e+00,2.387170553207397461e+00,2.349645853042602539e+00,2.334128856658935547e+00,2.319974899291992188e+00,2.325470447540283203e+00,2.352798223495483398e+00,2.355137109756469727e+00,2.353154420852661133e+00,2.352406740188598633e+00,2.351436376571655273e+00,2.349907398223876953e+00,2.349210023880004883e+00,2.348955869674682617e+00,2.348943233489990234e+00,2.349485874176025391e+00,2.350566625595092773e+00,2.351906299591064453e+00,2.353636980056762695e+00,2.356093883514404297e+00,2.358452081680297852e+00,2.361594915390014648e+00,2.364492416381835938e+00,2.367769718170166016e+00,2.370950222015380859e+00,2.373734951019287109e+00,2.376578330993652344e+00,2.378794431686401367e+00,2.380470514297485352e+00,2.382129430770874023e+00,2.383478641510009766e+00,2.385276079177856445e+00,2.387103080749511719e+00,2.388157844543457031e+00,2.389130592346191406e+00,2.390708446502685547e+00,2.392519950866699219e+00,2.394915580749511719e+00,2.398601293563842773e+00,2.402707576751708984e+00,2.407998085021972656e+00,2.413897752761840820e+00,2.418721437454223633e+00,2.422529220581054688e+00,2.426261425018310547e+00,2.428318977355957031e+00,2.427165985107421875e+00,2.415313959121704102e+00,2.418905735015869141e+00,2.437370061874389648e+00,2.454430580139160156e+00,2.463103532791137695e+00,2.470666646957397461e+00,2.471002340316772461e+00,2.472808122634887695e+00,2.476716995239257812e+00,2.480683326721191406e+00,2.482468366622924805e+00,2.483238697052001953e+00,2.482210874557495117e+00,2.480827569961547852e+00,2.482364416122436523e+00,2.487859249114990234e+00,2.564506769180297852e+00,2.621206760406494141e+00,2.648023605346679688e+00,2.636498451232910156e+00,2.655691623687744141e+00,2.693499803543090820e+00,2.692301750183105469e+00,2.693315505981445312e+00,2.697388887405395508e+00,2.703803062438964844e+00,2.707672834396362305e+00,2.712389469146728516e+00,2.715762376785278320e+00,2.719119310379028320e+00,2.720638990402221680e+00,2.722101449966430664e+00,2.723326444625854492e+00,2.723236083984375000e+00,2.723024368286132812e+00,2.721390485763549805e+00,2.720917940139770508e+00,2.719614267349243164e+00
2.142393350601196289e+00,2.142173528671264648e+00,2.148932456970214844e+00,2.200747489929199219e+00,2.215383768081665039e+00,2.222941160202026367e+00,2.225283622741699219e+00,2.225777149200439453e+00,2.230139732360839844e+00,2.234642267227172852e+00,2.268415451049804688e+00,2.282434225082397461e+00,2.296305418014526367e+00,2.298553228378295898e+00,2.316123723983764648e+00,2.322055101394653320e+00,2.325691699981689453e+00,2.329979181289672852e+00,2.344912528991699219e+00,2.351326227188110352e+00,2.357289552688598633e+00,2.360571861267089844e+00,2.363375186920166016e+00,2.365218162536621094e+00,2.367614030838012695e+00,2.368538618087768555e+00,2.369664430618286133e+00,2.369754076004028320e+00,2.370371580123901367e+00,2.372345209121704102e+00,2.375902891159057617e+00,2.378351926803588867e+00,2.381409406661987305e+00,2.386318445205688477e+00,2.391189098358154297e+00,2.389452457427978516e+00,2.352330684661865234e+00,2.329291820526123047e+00,2.313155174255371094e+00,2.317188978195190430e+00,2.350998401641845703e+00,2.354772806167602539e+00,2.353591203689575195e+00,2.352257251739501953e+00,2.350640296936035156e+00,2.349050760269165039e+00,2.348631381988525391e+00,2.348739385604858398e+00,2.349134445190429688e+00,2.349502801895141602e+00,2.350520849227905273e+00,2.351813316345214844e+00,2.353423595428466797e+00,2.355857133865356445e+00,2.358123302459716797e+00,2.361192464828491211e+00,2.364017724990844727e+00,2.367315530776977539e+00,2.370503187179565430e+00,2.373204231262207031e+00,2.376063346862792969e+00,2.378308057785034180e+00,2.380030155181884766e+00,2.381816148757934570e+00,2.383422136306762695e+00,2.385184526443481445e+00,2.386847972869873047e+00,2.387917280197143555e+00,2.388882398605346680e+00,2.390348434448242188e+00,2.392102479934692383e+00,2.394519090652465820e+00,2.398544073104858398e+00,2.402988672256469727e+00,2.408306360244750977e+00,2.415017843246459961e+00,2.420214653015136719e+00,2.423985958099365234e+00,2.427906274795532227e+00,2.429815530776977539e+00,2.427345514297485352e+00,2.414169549942016602e+00,2.414212703704833984e+00,2.431024551391601562e+00,2.448073387145996094e+00,2.463254451751708984e+00,2.467866659164428711e+00,2.467872858047485352e+00,2.469167947769165039e+00,2.473445653915405273e+00,2.477555036544799805e+00,2.479556322097778320e+00,2.479540824890136719e+00,2.477128744125366211e+00,2.474839925765991211e+00,2.476430416107177734e+00,2.484489202499389648e+00,2.564792394638061523e+00,2.620638370513916016e+00,2.649076461791992188e+00,2.639169216156005859e+00,2.651659011840820312e+00,2.694332361221313477e+00,2.691987991333007812e+00,2.692285776138305664e+00,2.696170568466186523e+00,2.702238082885742188e+00,2.706731557846069336e+00,2.711854934692382812e+00,2.715376615524291992e+00,2.718790292739868164e+00,2.720250129699707031e+00,2.721634626388549805e+00,2.722922325134277344e+00,2.723026037216186523e+00,2.722794771194458008e+00,2.721496582031250000e+00,2.721274375915527344e+00,2.719747304916381836e+00
2.138433694839477539e+00,2.137684822082519531e+00,2.141982555389404297e+00,2.191737890243530273e+00,2.210485935211181641e+00,2.217434883117675781e+00,2.220162391662597656e+00,2.220452785491943359e+00,2.224068164825439453e+00,2.229188919067382812e+00,2.259065389633178711e+00,2.273208856582641602e+00,2.286585569381713867e+00,2.287587165832519531e+00,2.304303407669067383e+00,2.311406135559082031e+00,2.313202857971191406e+00,2.317274570465087891e+00,2.334916114807128906e+00,2.342089891433715820e+00,2.351049423217773438e+00,2.356162786483764648e+00,2.359806060791015625e+00,2.362389087677001953e+00,2.365246057510375977e+00,2.366666793823242188e+00,2.368177890777587891e+00,2.368190050125122070e+00,2.369282484054565430e+00,2.371603012084960938e+00,2.375873565673828125e+00,2.379816770553588867e+00,2.384312629699707031e+00,2.389543294906616211e+00,2.393422126770019531e+00,2.389281511306762695e+00,2.351493597030639648e+00,2.324995040893554688e+00,2.306045055389404297e+00,2.310895442962646484e+00,2.347107172012329102e+00,2.351899862289428711e+00,2.351298093795776367e+00,2.350181102752685547e+00,2.348167896270751953e+00,2.346570491790771484e+00,2.346672773361206055e+00,2.347041845321655273e+00,2.347317695617675781e+00,2.347677469253540039e+00,2.348919868469238281e+00,2.350394964218139648e+00,2.352035284042358398e+00,2.354438304901123047e+00,2.356690883636474609e+00,2.359735965728759766e+00,2.362817764282226562e+00,2.366101503372192383e+00,2.369212150573730469e+00,2.371909618377685547e+00,2.374693155288696289e+00,2.376820564270019531e+00,2.378357172012329102e+00,2.380198478698730469e+00,2.381963729858398438e+00,2.383860826492309570e+00,2.385871171951293945e+00,2.387165307998657227e+00,2.388221979141235352e+00,2.389742851257324219e+00,2.391591310501098633e+00,2.394286394119262695e+00,2.398728132247924805e+00,2.403378963470458984e+00,2.408772230148315430e+00,2.415815353393554688e+00,2.420941114425659180e+00,2.425301551818847656e+00,2.429827213287353516e+00,2.431941747665405273e+00,2.427666425704956055e+00,2.415335893630981445e+00,2.411443233489990234e+00,2.427817583084106445e+00,2.448598146438598633e+00,2.459501266479492188e+00,2.464126825332641602e+00,2.465955734252929688e+00,2.467082977294921875e+00,2.470269680023193359e+00,2.473881006240844727e+00,2.475727796554565430e+00,2.476245880126953125e+00,2.472618579864501953e+00,2.469325065612792969e+00,2.470273256301879883e+00,2.479440450668334961e+00,2.566740751266479492e+00,2.621378898620605469e+00,2.651882410049438477e+00,2.640774488449096680e+00,2.651259660720825195e+00,2.694603204727172852e+00,2.690431594848632812e+00,2.690159320831298828e+00,2.693605899810791016e+00,2.699398279190063477e+00,2.704180240631103516e+00,2.709611892700195312e+00,2.713306188583374023e+00,2.716421604156494141e+00,2.718301296234130859e+00,2.719610691070556641e+00,2.721133947372436523e+00,2.722141742706298828e+00,2.722460985183715820e+00,2.721681594848632812e+00,2.721613168716430664e+00,2.720923423767089844e+00
2.133814573287963867e+00,2.134419679641723633e+00,2.136716842651367188e+00,2.178595066070556641e+00,2.203620195388793945e+00,2.210720777511596680e+00,2.213556766510009766e+00,2.213749885559082031e+00,2.218122959136962891e+00,2.221773862838745117e+00,2.245593786239624023e+00,2.263390541076660156e+00,2.276990413665771484e+00,2.276512622833251953e+00,2.291196107864379883e+00,2.299211263656616211e+00,2.300434827804565430e+00,2.303684234619140625e+00,2.324487209320068359e+00,2.331023454666137695e+00,2.341210842132568359e+00,2.349491119384765625e+00,2.353958368301391602e+00,2.357269525527954102e+00,2.360941410064697266e+00,2.362839460372924805e+00,2.364703416824340820e+00,2.365524530410766602e+00,2.367567062377929688e+00,2.371562957763671875e+00,2.376809120178222656e+00,2.381574869155883789e+00,2.387456178665161133e+00,2.392346620559692383e+00,2.397225141525268555e+00,2.393016576766967773e+00,2.351649284362792969e+00,2.322811365127563477e+00,2.300853967666625977e+00,2.307577610015869141e+00,2.341196060180664062e+00,2.347927093505859375e+00,2.348108291625976562e+00,2.346879720687866211e+00,2.345198631286621094e+00,2.344752550125122070e+00,2.344460248947143555e+00,2.344381570816040039e+00,2.344858884811401367e+00,2.345150709152221680e+00,2.346301078796386719e+00,2.347584486007690430e+00,2.348985671997070312e+00,2.350973606109619141e+00,2.353332757949829102e+00,2.356638669967651367e+00,2.360125780105590820e+00,2.363925933837890625e+00,2.367450952529907227e+00,2.370192527770996094e+00,2.372876167297363281e+00,2.374879598617553711e+00,2.376018762588500977e+00,2.377687454223632812e+00,2.379456281661987305e+00,2.381438255310058594e+00,2.383619785308837891e+00,2.384938240051269531e+00,2.386108875274658203e+00,2.387748956680297852e+00,2.389816045761108398e+00,2.392683982849121094e+00,2.397068023681640625e+00,2.402174949645996094e+00,2.407859325408935547e+00,2.415008306503295898e+00,2.420303106307983398e+00,2.425057172775268555e+00,2.430238723754882812e+00,2.432545661926269531e+00,2.427843093872070312e+00,2.418542385101318359e+00,2.410273551940917969e+00,2.425909042358398438e+00,2.449583053588867188e+00,2.455526590347290039e+00,2.461081743240356445e+00,2.462826728820800781e+00,2.463836908340454102e+00,2.467194080352783203e+00,2.470041036605834961e+00,2.471036911010742188e+00,2.471710920333862305e+00,2.468790054321289062e+00,2.464397430419921875e+00,2.465193748474121094e+00,2.477574348449707031e+00,2.569857120513916016e+00,2.619905471801757812e+00,2.653290987014770508e+00,2.638731718063354492e+00,2.650336980819702148e+00,2.691295862197875977e+00,2.687381505966186523e+00,2.687191247940063477e+00,2.690921068191528320e+00,2.696244478225708008e+00,2.701259851455688477e+00,2.707263231277465820e+00,2.711359977722167969e+00,2.714889526367187500e+00,2.716954231262207031e+00,2.718337297439575195e+00,2.720368623733520508e+00,2.721904277801513672e+00,2.723122596740722656e+00,2.723266601562500000e+00,2.723657846450805664e+00,2.723290920257568359e+00
2.132419586181640625e+00,2.133697748184204102e+00,2.135293722152709961e+00,2.166858673095703125e+00,2.199338197708129883e+00,2.207095146179199219e+00,2.210171461105346680e+00,2.209930181503295898e+00,2.213040590286254883e+00,2.217261791229248047e+00,2.239499568939208984e+00,2.257298231124877930e+00,2.273102760314941406e+00,2.273613929748535156e+00,2.284974575042724609e+00,2.294447183609008789e+00,2.294900894165039062e+00,2.298421144485473633e+00,2.317298412322998047e+00,2.325243473052978516e+00,2.335187435150146484e+00,2.344335079193115234e+00,2.349422454833984375e+00,2.353587388992309570e+00,2.358065128326416016e+00,2.360351800918579102e+00,2.362482070922851562e+00,2.364101648330688477e+00,2.366700172424316406e+00,2.371260881423950195e+00,2.378358364105224609e+00,2.384539127349853516e+00,2.390846014022827148e+00,2.396068811416625977e+00,2.401442050933837891e+00,2.397794961929321289e+00,2.356101751327514648e+00,2.317152023315429688e+00,2.296503067016601562e+00,2.305092334747314453e+00,2.335997819900512695e+00,2.344873905181884766e+00,2.345254659652709961e+00,2.344616651535034180e+00,2.343538761138916016e+00,2.343381166458129883e+00,2.343125104904174805e+00,2.342716932296752930e+00,2.343047857284545898e+00,2.343626260757446289e+00,2.344776391983032227e+00,2.345841169357299805e+00,2.347012281417846680e+00,2.348551273345947266e+00,2.350911617279052734e+00,2.354561328887939453e+00,2.358086585998535156e+00,2.362194299697875977e+00,2.366424083709716797e+00,2.369328975677490234e+00,2.372169017791748047e+00,2.373990058898925781e+00,2.375379800796508789e+00,2.377170324325561523e+00,2.378841400146484375e+00,2.381056070327758789e+00,2.383229017257690430e+00,2.384523391723632812e+00,2.386164188385009766e+00,2.387735128402709961e+00,2.389462471008300781e+00,2.392220020294189453e+00,2.396348476409912109e+00,2.401720046997070312e+00,2.407828330993652344e+00,2.415271043777465820e+00,2.420675277709960938e+00,2.425165891647338867e+00,2.430899143218994141e+00,2.433029413223266602e+00,2.428145885467529297e+00,2.421152114868164062e+00,2.408819675445556641e+00,2.422469139099121094e+00,2.446006536483764648e+00,2.452331304550170898e+00,2.457995414733886719e+00,2.460294246673583984e+00,2.460908412933349609e+00,2.464215755462646484e+00,2.466970443725585938e+00,2.468391180038452148e+00,2.469475030899047852e+00,2.467977762222290039e+00,2.463449001312255859e+00,2.464052677154541016e+00,2.479811191558837891e+00,2.572016000747680664e+00,2.620009660720825195e+00,2.652337551116943359e+00,2.636386156082153320e+00,2.648503303527832031e+00,2.687865018844604492e+00,2.684719800949096680e+00,2.684918880462646484e+00,2.689165592193603516e+00,2.695503473281860352e+00,2.700437545776367188e+00,2.706628322601318359e+00,2.711142063140869141e+00,2.714478254318237305e+00,2.716717004776000977e+00,2.718560695648193359e+00,2.720784187316894531e+00,2.723146438598632812e+00,2.724941492080688477e+00,2.725540161132812500e+00,2.726429939270019531e+00,2.725471735000610352e+00
2.133819341659545898e+00,2.134575843811035156e+00,2.135281324386596680e+00,2.158569097518920898e+00,2.197013378143310547e+00,2.203111171722412109e+00,2.207457780838012695e+00,2.206796169281005859e+00,2.207398891448974609e+00,2.212842464447021484e+00,2.232685089111328125e+00,2.251923322677612305e+00,2.269558668136596680e+00,2.272338628768920898e+00,2.283026218414306641e+00,2.291721582412719727e+00,2.293857336044311523e+00,2.298644304275512695e+00,2.312916517257690430e+00,2.320594549179077148e+00,2.329206705093383789e+00,2.339536190032958984e+00,2.345223188400268555e+00,2.350439071655273438e+00,2.355934858322143555e+00,2.358889102935791016e+00,2.361132621765136719e+00,2.363649368286132812e+00,2.366848707199096680e+00,2.371810197830200195e+00,2.379681348800659180e+00,2.385847091674804688e+00,2.393049240112304688e+00,2.399581432342529297e+00,2.403483152389526367e+00,2.400776624679565430e+00,2.357836246490478516e+00,2.307148218154907227e+00,2.291939496994018555e+00,2.300550699234008789e+00,2.330792665481567383e+00,2.340975999832153320e+00,2.342015266418457031e+00,2.342071056365966797e+00,2.341636180877685547e+00,2.341665506362915039e+00,2.341220855712890625e+00,2.341402769088745117e+00,2.342010259628295898e+00,2.342621326446533203e+00,2.343703269958496094e+00,2.344582080841064453e+00,2.345811843872070312e+00,2.347140312194824219e+00,2.349449396133422852e+00,2.353080272674560547e+00,2.356498479843139648e+00,2.360667943954467773e+00,2.364643096923828125e+00,2.368101119995117188e+00,2.371277093887329102e+00,2.373328685760498047e+00,2.375033378601074219e+00,2.377005815505981445e+00,2.378751993179321289e+00,2.381349325180053711e+00,2.383743524551391602e+00,2.385412693023681641e+00,2.387184381484985352e+00,2.388565301895141602e+00,2.390107631683349609e+00,2.392819643020629883e+00,2.396595954895019531e+00,2.401424407958984375e+00,2.406802177429199219e+00,2.414131402969360352e+00,2.420006036758422852e+00,2.424482583999633789e+00,2.429793357849121094e+00,2.431364536285400391e+00,2.426666498184204102e+00,2.420771360397338867e+00,2.404767036437988281e+00,2.416079044342041016e+00,2.440210103988647461e+00,2.448723316192626953e+00,2.454558610916137695e+00,2.456831216812133789e+00,2.457180976867675781e+00,2.460030555725097656e+00,2.463066816329956055e+00,2.465361118316650391e+00,2.467774868011474609e+00,2.467641353607177734e+00,2.462279558181762695e+00,2.463331222534179688e+00,2.480753660202026367e+00,2.567993164062500000e+00,2.615261316299438477e+00,2.646586418151855469e+00,2.632039070129394531e+00,2.645334482192993164e+00,2.683183670043945312e+00,2.680374145507812500e+00,2.681241989135742188e+00,2.686236619949340820e+00,2.693779945373535156e+00,2.698978185653686523e+00,2.705548048019409180e+00,2.710037946701049805e+00,2.713572978973388672e+00,2.716097354888916016e+00,2.717861413955688477e+00,2.720469474792480469e+00,2.723978281021118164e+00,2.726191997528076172e+00,2.727188825607299805e+00,2.728457689285278320e+00,2.727452993392944336e+00
2.134207725524902344e+00,2.134049177169799805e+00,2.132930517196655273e+00,2.150232791900634766e+00,2.193276166915893555e+00,2.197736024856567383e+00,2.202632904052734375e+00,2.201093196868896484e+00,2.200839281082153320e+00,2.205302238464355469e+00,2.224277257919311523e+00,2.245296478271484375e+00,2.261972904205322266e+00,2.267720460891723633e+00,2.277701377868652344e+00,2.287730455398559570e+00,2.292354822158813477e+00,2.296486139297485352e+00,2.307365894317626953e+00,2.316050291061401367e+00,2.323506593704223633e+00,2.334599494934082031e+00,2.340774774551391602e+00,2.346813917160034180e+00,2.352810621261596680e+00,2.356356382369995117e+00,2.359135389328002930e+00,2.362228155136108398e+00,2.366238355636596680e+00,2.372068881988525391e+00,2.380612611770629883e+00,2.387774467468261719e+00,2.395245313644409180e+00,2.400168895721435547e+00,2.402688741683959961e+00,2.399327039718627930e+00,2.352724075317382812e+00,2.303844690322875977e+00,2.287617683410644531e+00,2.297564268112182617e+00,2.326133489608764648e+00,2.336695909500122070e+00,2.337873697280883789e+00,2.338210582733154297e+00,2.338602781295776367e+00,2.339119911193847656e+00,2.339243650436401367e+00,2.339989423751831055e+00,2.340836524963378906e+00,2.341670274734497070e+00,2.342761278152465820e+00,2.343384265899658203e+00,2.344577789306640625e+00,2.346301078796386719e+00,2.348796129226684570e+00,2.352517604827880859e+00,2.355843544006347656e+00,2.360297918319702148e+00,2.363962888717651367e+00,2.367205619812011719e+00,2.370677947998046875e+00,2.373349666595458984e+00,2.375355958938598633e+00,2.377710103988647461e+00,2.379599571228027344e+00,2.382129669189453125e+00,2.384896278381347656e+00,2.386549472808837891e+00,2.388167858123779297e+00,2.389696836471557617e+00,2.391028881072998047e+00,2.393326282501220703e+00,2.396241664886474609e+00,2.399991273880004883e+00,2.404399633407592773e+00,2.411039352416992188e+00,2.416995763778686523e+00,2.421925783157348633e+00,2.427222490310668945e+00,2.428930521011352539e+00,2.423366546630859375e+00,2.418037176132202148e+00,2.401299238204956055e+00,2.410003900527954102e+00,2.434058189392089844e+00,2.443473100662231445e+00,2.449858188629150391e+00,2.451650857925415039e+00,2.451781988143920898e+00,2.454783201217651367e+00,2.458579301834106445e+00,2.461899757385253906e+00,2.465450048446655273e+00,2.466890811920166016e+00,2.462773084640502930e+00,2.465639591217041016e+00,2.481041193008422852e+00,2.560221672058105469e+00,2.606579542160034180e+00,2.638334989547729492e+00,2.624223709106445312e+00,2.636422634124755859e+00,2.675981998443603516e+00,2.675310134887695312e+00,2.677063703536987305e+00,2.682734489440917969e+00,2.690748929977416992e+00,2.696439266204833984e+00,2.703109741210937500e+00,2.707465887069702148e+00,2.711385488510131836e+00,2.713928222656250000e+00,2.716438055038452148e+00,2.717367649078369141e+00,2.722801446914672852e+00,2.728529691696166992e+00,2.729502677917480469e+00,2.730648279190063477e+00,2.727826595306396484e+00
2.134821891784667969e+00,2.134949207305908203e+00,2.133416175842285156e+00,2.144916296005249023e+00,2.188247442245483398e+00,2.192434787750244141e+00,2.198181390762329102e+00,2.197351217269897461e+00,2.197239160537719727e+00,2.200272321701049805e+00,2.218445777893066406e+00,2.239507198333740234e+00,2.256639242172241211e+00,2.265087366104125977e+00,2.273320674896240234e+00,2.285080194473266602e+00,2.289005279541015625e+00,2.293965816497802734e+00,2.302606105804443359e+00,2.312602996826171875e+00,2.318532228469848633e+00,2.330522537231445312e+00,2.338380336761474609e+00,2.344779253005981445e+00,2.351006031036376953e+00,2.355247974395751953e+00,2.358612298965454102e+00,2.362225770950317383e+00,2.366490840911865234e+00,2.372909069061279297e+00,2.382158279418945312e+00,2.389243841171264648e+00,2.397559642791748047e+00,2.400243759155273438e+00,2.402583122253417969e+00,2.402585983276367188e+00,2.343538284301757812e+00,2.301754713058471680e+00,2.284770727157592773e+00,2.294678449630737305e+00,2.323158979415893555e+00,2.332597732543945312e+00,2.334083318710327148e+00,2.335709333419799805e+00,2.337032079696655273e+00,2.337812900543212891e+00,2.338631391525268555e+00,2.339552879333496094e+00,2.340523719787597656e+00,2.341948032379150391e+00,2.343411445617675781e+00,2.343904972076416016e+00,2.344717979431152344e+00,2.346218347549438477e+00,2.348857879638671875e+00,2.352743148803710938e+00,2.356200695037841797e+00,2.360594272613525391e+00,2.364342451095581055e+00,2.367354869842529297e+00,2.370906591415405273e+00,2.373921871185302734e+00,2.376184463500976562e+00,2.378692150115966797e+00,2.380623579025268555e+00,2.383182525634765625e+00,2.386050939559936523e+00,2.387927293777465820e+00,2.389575958251953125e+00,2.390817403793334961e+00,2.391916990280151367e+00,2.393875360488891602e+00,2.395890235900878906e+00,2.398862838745117188e+00,2.402250528335571289e+00,2.408216476440429688e+00,2.413846969604492188e+00,2.419175863265991211e+00,2.424172401428222656e+00,2.425695419311523438e+00,2.419312477111816406e+00,2.413252115249633789e+00,2.397418260574340820e+00,2.403832912445068359e+00,2.425353288650512695e+00,2.435858726501464844e+00,2.444493532180786133e+00,2.446433067321777344e+00,2.446889162063598633e+00,2.449738025665283203e+00,2.453770875930786133e+00,2.457067012786865234e+00,2.462651491165161133e+00,2.466700315475463867e+00,2.465732336044311523e+00,2.471728563308715820e+00,2.482072353363037109e+00,2.550662994384765625e+00,2.595551729202270508e+00,2.627203464508056641e+00,2.614834070205688477e+00,2.624985456466674805e+00,2.663483381271362305e+00,2.668489456176757812e+00,2.672456741333007812e+00,2.679979801177978516e+00,2.688305139541625977e+00,2.694729566574096680e+00,2.701393365859985352e+00,2.705517530441284180e+00,2.709523200988769531e+00,2.711527109146118164e+00,2.712482213973999023e+00,2.713900804519653320e+00,2.725173950195312500e+00,2.731242656707763672e+00,2.730316877365112305e+00,2.731392145156860352e+00,2.728920936584472656e+00
2.134076118469238281e+00,2.134271383285522461e+00,2.134000062942504883e+00,2.139850616455078125e+00,2.181156873703002930e+00,2.186736106872558594e+00,2.191413164138793945e+00,2.191632747650146484e+00,2.190797328948974609e+00,2.194037437438964844e+00,2.209737300872802734e+00,2.231994152069091797e+00,2.247489690780639648e+00,2.256042957305908203e+00,2.264439344406127930e+00,2.278486728668212891e+00,2.280496120452880859e+00,2.286230564117431641e+00,2.293394565582275391e+00,2.304536581039428711e+00,2.309670448303222656e+00,2.323742866516113281e+00,2.332580089569091797e+00,2.338321447372436523e+00,2.344428062438964844e+00,2.348612546920776367e+00,2.352642774581909180e+00,2.357074499130249023e+00,2.362080812454223633e+00,2.368487119674682617e+00,2.377903938293457031e+00,2.385278224945068359e+00,2.393433094024658203e+00,2.396120786666870117e+00,2.396787881851196289e+00,2.399860620498657227e+00,2.331490278244018555e+00,2.294719934463500977e+00,2.276864767074584961e+00,2.286212921142578125e+00,2.315664529800415039e+00,2.324391841888427734e+00,2.327648401260375977e+00,2.330133438110351562e+00,2.331513881683349609e+00,2.332916736602783203e+00,2.334628343582153320e+00,2.336343288421630859e+00,2.337992906570434570e+00,2.339874505996704102e+00,2.341740846633911133e+00,2.342414379119873047e+00,2.343334913253784180e+00,2.344897508621215820e+00,2.347381830215454102e+00,2.351287364959716797e+00,2.355276107788085938e+00,2.359747409820556641e+00,2.363617420196533203e+00,2.366796493530273438e+00,2.370174407958984375e+00,2.373450279235839844e+00,2.375678777694702148e+00,2.377973794937133789e+00,2.380001306533813477e+00,2.382432699203491211e+00,2.385196447372436523e+00,2.387471199035644531e+00,2.389305353164672852e+00,2.390377759933471680e+00,2.391498804092407227e+00,2.393318891525268555e+00,2.394868612289428711e+00,2.397506475448608398e+00,2.400502443313598633e+00,2.406053066253662109e+00,2.411885023117065430e+00,2.417372226715087891e+00,2.422609806060791016e+00,2.423493862152099609e+00,2.417357683181762695e+00,2.410431623458862305e+00,2.397875785827636719e+00,2.403738498687744141e+00,2.420517683029174805e+00,2.431761026382446289e+00,2.442656755447387695e+00,2.445507287979125977e+00,2.447248458862304688e+00,2.450880527496337891e+00,2.454541444778442383e+00,2.458281517028808594e+00,2.466671228408813477e+00,2.474152565002441406e+00,2.478023529052734375e+00,2.483204126358032227e+00,2.491938591003417969e+00,2.551135778427124023e+00,2.589936494827270508e+00,2.621001482009887695e+00,2.614992141723632812e+00,2.623853206634521484e+00,2.658606052398681641e+00,2.667770385742187500e+00,2.673866033554077148e+00,2.681367874145507812e+00,2.690353393554687500e+00,2.697420597076416016e+00,2.704459905624389648e+00,2.708565711975097656e+00,2.713006019592285156e+00,2.714400529861450195e+00,2.716058254241943359e+00,2.719784021377563477e+00,2.730289220809936523e+00,2.735272169113159180e+00,2.733776807785034180e+00,2.734321355819702148e+00,2.732261896133422852e+00
2.133581399917602539e+00,2.133288621902465820e+00,2.133307456970214844e+00,2.137217283248901367e+00,2.172911167144775391e+00,2.181541919708251953e+00,2.184910774230957031e+00,2.185870885848999023e+00,2.185644626617431641e+00,2.188826799392700195e+00,2.201515913009643555e+00,2.222100973129272461e+00,2.236078262329101562e+00,2.245819330215454102e+00,2.254493951797485352e+00,2.270024299621582031e+00,2.271555662155151367e+00,2.276025772094726562e+00,2.281752586364746094e+00,2.295709609985351562e+00,2.302045345306396484e+00,2.315082311630249023e+00,2.324959039688110352e+00,2.331158876419067383e+00,2.336691141128540039e+00,2.341454267501831055e+00,2.346587896347045898e+00,2.351613283157348633e+00,2.357084274291992188e+00,2.363803148269653320e+00,2.372472763061523438e+00,2.379656553268432617e+00,2.387686252593994141e+00,2.390591859817504883e+00,2.391798257827758789e+00,2.395140647888183594e+00,2.327451229095458984e+00,2.280116081237792969e+00,2.264335393905639648e+00,2.275787591934204102e+00,2.304788351058959961e+00,2.314898014068603516e+00,2.321014165878295898e+00,2.323511838912963867e+00,2.326196432113647461e+00,2.328196763992309570e+00,2.330267429351806641e+00,2.332594871520996094e+00,2.334478378295898438e+00,2.336827516555786133e+00,2.339276790618896484e+00,2.340141773223876953e+00,2.341408491134643555e+00,2.343471288681030273e+00,2.346023797988891602e+00,2.349462032318115234e+00,2.353520631790161133e+00,2.357884645462036133e+00,2.361981153488159180e+00,2.365535020828247070e+00,2.369027853012084961e+00,2.372504234313964844e+00,2.374940872192382812e+00,2.377201795578002930e+00,2.379086971282958984e+00,2.381472587585449219e+00,2.384357452392578125e+00,2.386748313903808594e+00,2.389118909835815430e+00,2.390486001968383789e+00,2.391275405883789062e+00,2.393224716186523438e+00,2.394698381423950195e+00,2.397329807281494141e+00,2.400264739990234375e+00,2.405231237411499023e+00,2.410531044006347656e+00,2.415555000305175781e+00,2.420544624328613281e+00,2.420691490173339844e+00,2.416237592697143555e+00,2.410032510757446289e+00,2.402456521987915039e+00,2.407152652740478516e+00,2.420639991760253906e+00,2.431111335754394531e+00,2.443418979644775391e+00,2.447738409042358398e+00,2.450712680816650391e+00,2.454999446868896484e+00,2.459040164947509766e+00,2.464488029479980469e+00,2.475705385208129883e+00,2.485837459564208984e+00,2.492783308029174805e+00,2.497199535369873047e+00,2.505340337753295898e+00,2.549859762191772461e+00,2.586013793945312500e+00,2.617944955825805664e+00,2.616489171981811523e+00,2.624697923660278320e+00,2.657592773437500000e+00,2.667076349258422852e+00,2.675417423248291016e+00,2.684603214263916016e+00,2.693350315093994141e+00,2.700488328933715820e+00,2.708068132400512695e+00,2.712838649749755859e+00,2.717757463455200195e+00,2.719821214675903320e+00,2.722796678543090820e+00,2.728000402450561523e+00,2.733939170837402344e+00,2.739765644073486328e+00,2.737084388732910156e+00,2.736413002014160156e+00,2.734163284301757812e+00
2.132439374923706055e+00,2.133336544036865234e+00,2.134187698364257812e+00,2.137880086898803711e+00,2.166053056716918945e+00,2.175974607467651367e+00,2.179352283477783203e+00,2.180679082870483398e+00,2.180977344512939453e+00,2.184504270553588867e+00,2.193911552429199219e+00,2.211729288101196289e+00,2.224880218505859375e+00,2.233998537063598633e+00,2.242630481719970703e+00,2.259026527404785156e+00,2.259676933288574219e+00,2.262541055679321289e+00,2.267282247543334961e+00,2.282779693603515625e+00,2.292793750762939453e+00,2.306392669677734375e+00,2.317639827728271484e+00,2.323479652404785156e+00,2.330355882644653320e+00,2.336598157882690430e+00,2.342944860458374023e+00,2.348610401153564453e+00,2.354480981826782227e+00,2.361344099044799805e+00,2.369460582733154297e+00,2.375609397888183594e+00,2.381840467453002930e+00,2.384048938751220703e+00,2.384229660034179688e+00,2.382396697998046875e+00,2.320645809173583984e+00,2.261128664016723633e+00,2.249744415283203125e+00,2.264307975769042969e+00,2.292248010635375977e+00,2.305151224136352539e+00,2.313157796859741211e+00,2.315762996673583984e+00,2.319142103195190430e+00,2.323384523391723633e+00,2.326484203338623047e+00,2.329351663589477539e+00,2.331740856170654297e+00,2.334461927413940430e+00,2.337210655212402344e+00,2.338300943374633789e+00,2.339735269546508789e+00,2.341802597045898438e+00,2.344223976135253906e+00,2.347378730773925781e+00,2.350973367691040039e+00,2.355257034301757812e+00,2.359434366226196289e+00,2.363130569458007812e+00,2.366760492324829102e+00,2.370331048965454102e+00,2.373384475708007812e+00,2.375769615173339844e+00,2.377726793289184570e+00,2.380246400833129883e+00,2.383009433746337891e+00,2.385687351226806641e+00,2.388380289077758789e+00,2.390106439590454102e+00,2.391161918640136719e+00,2.393042802810668945e+00,2.394403219223022461e+00,2.397257804870605469e+00,2.400458574295043945e+00,2.404843807220458984e+00,2.409441709518432617e+00,2.413866996765136719e+00,2.417918205261230469e+00,2.417357444763183594e+00,2.414300441741943359e+00,2.411108493804931641e+00,2.408323287963867188e+00,2.411168336868286133e+00,2.421410083770751953e+00,2.430958747863769531e+00,2.443530321121215820e+00,2.448681592941284180e+00,2.453763008117675781e+00,2.458728790283203125e+00,2.465069055557250977e+00,2.472844600677490234e+00,2.486785650253295898e+00,2.497645378112792969e+00,2.504286766052246094e+00,2.509787797927856445e+00,2.516036272048950195e+00,2.549577474594116211e+00,2.584518432617187500e+00,2.615657329559326172e+00,2.615128755569458008e+00,2.626414775848388672e+00,2.656706571578979492e+00,2.668076276779174805e+00,2.677798509597778320e+00,2.686998844146728516e+00,2.696819543838500977e+00,2.704366445541381836e+00,2.712862491607666016e+00,2.718402147293090820e+00,2.724025249481201172e+00,2.727260112762451172e+00,2.731070041656494141e+00,2.736613273620605469e+00,2.740154504776000977e+00,2.743731021881103516e+00,2.741653442382812500e+00,2.740481615066528320e+00,2.736557006835937500e+00
2.131544113159179688e+00,2.132446765899658203e+00,2.134882688522338867e+00,2.139719963073730469e+00,2.159152269363403320e+00,2.171418905258178711e+00,2.174427747726440430e+00,2.175445318222045898e+00,2.175534009933471680e+00,2.179313182830810547e+00,2.185591936111450195e+00,2.202365875244140625e+00,2.212867259979248047e+00,2.222212314605712891e+00,2.230529308319091797e+00,2.246389627456665039e+00,2.248126029968261719e+00,2.252155542373657227e+00,2.258212089538574219e+00,2.270989179611206055e+00,2.283535242080688477e+00,2.297983884811401367e+00,2.308924913406372070e+00,2.316020727157592773e+00,2.323775529861450195e+00,2.330629825592041016e+00,2.338335037231445312e+00,2.344948768615722656e+00,2.351438045501708984e+00,2.358213424682617188e+00,2.365689039230346680e+00,2.370756149291992188e+00,2.375078916549682617e+00,2.375247955322265625e+00,2.372350931167602539e+00,2.364040613174438477e+00,2.307359457015991211e+00,2.243120908737182617e+00,2.234142303466796875e+00,2.251093387603759766e+00,2.277202606201171875e+00,2.292960166931152344e+00,2.303867340087890625e+00,2.309167861938476562e+00,2.314778804779052734e+00,2.318694829940795898e+00,2.322040796279907227e+00,2.325550079345703125e+00,2.328518152236938477e+00,2.331746578216552734e+00,2.334730386734008789e+00,2.336149215698242188e+00,2.338036298751831055e+00,2.340295553207397461e+00,2.342697620391845703e+00,2.346056938171386719e+00,2.349540472030639648e+00,2.353375434875488281e+00,2.357164144515991211e+00,2.360744476318359375e+00,2.364418745040893555e+00,2.368044853210449219e+00,2.371347188949584961e+00,2.373868465423583984e+00,2.376319646835327148e+00,2.379029989242553711e+00,2.381796836853027344e+00,2.384722709655761719e+00,2.387316942214965820e+00,2.389359951019287109e+00,2.390924215316772461e+00,2.392933845520019531e+00,2.394411563873291016e+00,2.397423744201660156e+00,2.400979518890380859e+00,2.405081987380981445e+00,2.408644199371337891e+00,2.412930965423583984e+00,2.416460990905761719e+00,2.415912389755249023e+00,2.414525032043457031e+00,2.413471460342407227e+00,2.414268970489501953e+00,2.417040586471557617e+00,2.424829483032226562e+00,2.432032108306884766e+00,2.444828748703002930e+00,2.450638771057128906e+00,2.457658290863037109e+00,2.464218378067016602e+00,2.471910238265991211e+00,2.482547044754028320e+00,2.498321056365966797e+00,2.508980751037597656e+00,2.515615940093994141e+00,2.521234273910522461e+00,2.525220155715942383e+00,2.552501678466796875e+00,2.584200382232666016e+00,2.616097927093505859e+00,2.618220806121826172e+00,2.629993200302124023e+00,2.657505989074707031e+00,2.671245813369750977e+00,2.681818962097167969e+00,2.690478563308715820e+00,2.700349807739257812e+00,2.708163976669311523e+00,2.717116594314575195e+00,2.724050283432006836e+00,2.730004310607910156e+00,2.734432935714721680e+00,2.738231897354125977e+00,2.742310285568237305e+00,2.744314670562744141e+00,2.746685266494750977e+00,2.744846105575561523e+00,2.743775129318237305e+00,2.738573074340820312e+00
2.132147073745727539e+00,2.132798671722412109e+00,2.135488033294677734e+00,2.140136241912841797e+00,2.154830694198608398e+00,2.168826103210449219e+00,2.171582698822021484e+00,2.173240900039672852e+00,2.173675775527954102e+00,2.177603721618652344e+00,2.182141304016113281e+00,2.196472883224487305e+00,2.205517053604125977e+00,2.215073347091674805e+00,2.223693132400512695e+00,2.240583896636962891e+00,2.243396997451782227e+00,2.247463226318359375e+00,2.255311489105224609e+00,2.267614841461181641e+00,2.279688835144042969e+00,2.292715072631835938e+00,2.304676294326782227e+00,2.312401294708251953e+00,2.320594549179077148e+00,2.328423976898193359e+00,2.336843967437744141e+00,2.344578504562377930e+00,2.351058483123779297e+00,2.357883214950561523e+00,2.364085912704467773e+00,2.367827415466308594e+00,2.371680974960327148e+00,2.370373725891113281e+00,2.366596460342407227e+00,2.357657909393310547e+00,2.302282333374023438e+00,2.232550144195556641e+00,2.225283384323120117e+00,2.242392539978027344e+00,2.268750429153442383e+00,2.288344621658325195e+00,2.300701856613159180e+00,2.307321548461914062e+00,2.313070774078369141e+00,2.316667556762695312e+00,2.319989681243896484e+00,2.324058055877685547e+00,2.327384710311889648e+00,2.330936431884765625e+00,2.334357261657714844e+00,2.336127281188964844e+00,2.338365554809570312e+00,2.341022253036499023e+00,2.344003438949584961e+00,2.347585201263427734e+00,2.351125240325927734e+00,2.354765176773071289e+00,2.357928037643432617e+00,2.361185073852539062e+00,2.364691972732543945e+00,2.368288040161132812e+00,2.371617555618286133e+00,2.374141931533813477e+00,2.376602411270141602e+00,2.379374504089355469e+00,2.382117271423339844e+00,2.384917497634887695e+00,2.387660264968872070e+00,2.389756917953491211e+00,2.391682863235473633e+00,2.394128322601318359e+00,2.395694732666015625e+00,2.398888349533081055e+00,2.402594089508056641e+00,2.406216859817504883e+00,2.409203290939331055e+00,2.412772178649902344e+00,2.416218042373657227e+00,2.416613340377807617e+00,2.416359663009643555e+00,2.416427135467529297e+00,2.417403697967529297e+00,2.420130491256713867e+00,2.427029848098754883e+00,2.432679891586303711e+00,2.445056200027465820e+00,2.452060937881469727e+00,2.459997653961181641e+00,2.467549562454223633e+00,2.476736068725585938e+00,2.487887382507324219e+00,2.504146814346313477e+00,2.515105247497558594e+00,2.521268367767333984e+00,2.527504920959472656e+00,2.530902862548828125e+00,2.553793430328369141e+00,2.579982995986938477e+00,2.611900568008422852e+00,2.616970300674438477e+00,2.628411769866943359e+00,2.654832839965820312e+00,2.669641733169555664e+00,2.681784629821777344e+00,2.691873073577880859e+00,2.702079534530639648e+00,2.710491895675659180e+00,2.719545364379882812e+00,2.727293014526367188e+00,2.733748197555541992e+00,2.738378286361694336e+00,2.742072820663452148e+00,2.745236873626708984e+00,2.747507333755493164e+00,2.748444318771362305e+00,2.748416662216186523e+00,2.746964216232299805e+00,2.742587327957153320e+00
2.131755113601684570e+00,2.133875846862792969e+00,2.136847019195556641e+00,2.141551256179809570e+00,2.154556512832641602e+00,2.168903112411499023e+00,2.171486616134643555e+00,2.173433303833007812e+00,2.173450708389282227e+00,2.177385807037353516e+00,2.180930852890014648e+00,2.192599058151245117e+00,2.199653148651123047e+00,2.209913492202758789e+00,2.219263792037963867e+00,2.237283706665039062e+00,2.241535186767578125e+00,2.246302366256713867e+00,2.253443479537963867e+00,2.265158176422119141e+00,2.276157379150390625e+00,2.289081811904907227e+00,2.301470518112182617e+00,2.309837579727172852e+00,2.318745613098144531e+00,2.327520370483398438e+00,2.336163759231567383e+00,2.344219207763671875e+00,2.351099491119384766e+00,2.357619285583496094e+00,2.363831996917724609e+00,2.366817474365234375e+00,2.368851661682128906e+00,2.367158651351928711e+00,2.364026546478271484e+00,2.353484630584716797e+00,2.304628133773803711e+00,2.224102735519409180e+00,2.218828916549682617e+00,2.236631393432617188e+00,2.263694286346435547e+00,2.285970211029052734e+00,2.299090623855590820e+00,2.306067705154418945e+00,2.311910629272460938e+00,2.315171003341674805e+00,2.318667650222778320e+00,2.323694229125976562e+00,2.327625989913940430e+00,2.331705093383789062e+00,2.335473775863647461e+00,2.337471723556518555e+00,2.339869737625122070e+00,2.342553138732910156e+00,2.345874786376953125e+00,2.349434852600097656e+00,2.353199958801269531e+00,2.357087135314941406e+00,2.360368490219116211e+00,2.363676309585571289e+00,2.366789340972900391e+00,2.369863033294677734e+00,2.372778415679931641e+00,2.374989986419677734e+00,2.377210140228271484e+00,2.379740238189697266e+00,2.382603883743286133e+00,2.385547637939453125e+00,2.388534069061279297e+00,2.390831232070922852e+00,2.392874956130981445e+00,2.395385265350341797e+00,2.396916389465332031e+00,2.400278806686401367e+00,2.403947591781616211e+00,2.407387256622314453e+00,2.410285711288452148e+00,2.413575649261474609e+00,2.416692256927490234e+00,2.417849779129028320e+00,2.418686866760253906e+00,2.419835329055786133e+00,2.420689582824707031e+00,2.423158645629882812e+00,2.428894996643066406e+00,2.435287237167358398e+00,2.446156263351440430e+00,2.453897953033447266e+00,2.463089942932128906e+00,2.471259593963623047e+00,2.480975151062011719e+00,2.492208957672119141e+00,2.508971452713012695e+00,2.521309137344360352e+00,2.527214288711547852e+00,2.533275842666625977e+00,2.537216663360595703e+00,2.556483507156372070e+00,2.579389095306396484e+00,2.610089063644409180e+00,2.616691827774047852e+00,2.628721237182617188e+00,2.653988122940063477e+00,2.668726921081542969e+00,2.681265354156494141e+00,2.692089796066284180e+00,2.703440666198730469e+00,2.712664842605590820e+00,2.722131967544555664e+00,2.730501174926757812e+00,2.737674474716186523e+00,2.742063045501708984e+00,2.745822668075561523e+00,2.748557806015014648e+00,2.750205039978027344e+00,2.750957727432250977e+00,2.750373601913452148e+00,2.749642372131347656e+00,2.745496749877929688e+00
2.131639480590820312e+00,2.134587526321411133e+00,2.137718677520751953e+00,2.142861127853393555e+00,2.154562234878540039e+00,2.169428348541259766e+00,2.171645164489746094e+00,2.173487901687622070e+00,2.173330545425415039e+00,2.177220344543457031e+00,2.178955554962158203e+00,2.189991235733032227e+00,2.196603775024414062e+00,2.206732749938964844e+00,2.214481115341186523e+00,2.232812404632568359e+00,2.238684654235839844e+00,2.244988203048706055e+00,2.251703023910522461e+00,2.261652946472167969e+00,2.273588180541992188e+00,2.286048173904418945e+00,2.298574447631835938e+00,2.307653665542602539e+00,2.317056417465209961e+00,2.325768232345581055e+00,2.334495782852172852e+00,2.342606067657470703e+00,2.349639415740966797e+00,2.356003046035766602e+00,2.362531661987304688e+00,2.365815639495849609e+00,2.367052555084228516e+00,2.365070343017578125e+00,2.364202737808227539e+00,2.356293201446533203e+00,2.313777685165405273e+00,2.218781232833862305e+00,2.214649438858032227e+00,2.232072591781616211e+00,2.261091470718383789e+00,2.286008119583129883e+00,2.297996997833251953e+00,2.304936885833740234e+00,2.310118913650512695e+00,2.313564300537109375e+00,2.317696332931518555e+00,2.323111772537231445e+00,2.327296972274780273e+00,2.332053661346435547e+00,2.336210489273071289e+00,2.337998390197753906e+00,2.340692520141601562e+00,2.343452215194702148e+00,2.346718549728393555e+00,2.350292921066284180e+00,2.354015588760375977e+00,2.357678890228271484e+00,2.360903501510620117e+00,2.364382266998291016e+00,2.367367029190063477e+00,2.370103359222412109e+00,2.372806787490844727e+00,2.375029087066650391e+00,2.377139329910278320e+00,2.379682064056396484e+00,2.382610082626342773e+00,2.385463476181030273e+00,2.388834476470947266e+00,2.391518592834472656e+00,2.393576145172119141e+00,2.396208286285400391e+00,2.397997379302978516e+00,2.401255846023559570e+00,2.404748916625976562e+00,2.408016920089721680e+00,2.410713672637939453e+00,2.414029121398925781e+00,2.417205095291137695e+00,2.418785810470581055e+00,2.420359849929809570e+00,2.421504020690917969e+00,2.422902345657348633e+00,2.425343275070190430e+00,2.430156469345092773e+00,2.437481641769409180e+00,2.449379682540893555e+00,2.457480907440185547e+00,2.467822790145874023e+00,2.475306510925292969e+00,2.484113693237304688e+00,2.494718074798583984e+00,2.512891292572021484e+00,2.526041507720947266e+00,2.532512426376342773e+00,2.539428472518920898e+00,2.543847799301147461e+00,2.558768987655639648e+00,2.581305027008056641e+00,2.609864473342895508e+00,2.616334915161132812e+00,2.630540132522583008e+00,2.653952598571777344e+00,2.670247793197631836e+00,2.683206081390380859e+00,2.693474054336547852e+00,2.704900503158569336e+00,2.714483022689819336e+00,2.723936796188354492e+00,2.732064247131347656e+00,2.739588022232055664e+00,2.744254827499389648e+00,2.747843027114868164e+00,2.750366210937500000e+00,2.752291917800903320e+00,2.752521991729736328e+00,2.751068830490112305e+00,2.751269578933715820e+00,2.745720863342285156e+00
2.132227659225463867e+00,2.135344028472900391e+00,2.137740135192871094e+00,2.143135786056518555e+00,2.154696226119995117e+00,2.170404911041259766e+00,2.172744512557983398e+00,2.174008369445800781e+00,2.173911333084106445e+00,2.176561832427978516e+00,2.179305791854858398e+00,2.188661336898803711e+00,2.194589614868164062e+00,2.203791379928588867e+00,2.211168289184570312e+00,2.229660511016845703e+00,2.236166954040527344e+00,2.243140697479248047e+00,2.250552892684936523e+00,2.259276866912841797e+00,2.270800828933715820e+00,2.282756805419921875e+00,2.295598983764648438e+00,2.304680347442626953e+00,2.314148426055908203e+00,2.323090314865112305e+00,2.332129478454589844e+00,2.340057849884033203e+00,2.346827745437622070e+00,2.353080034255981445e+00,2.359628677368164062e+00,2.362850427627563477e+00,2.364785671234130859e+00,2.363429069519042969e+00,2.363810539245605469e+00,2.360511541366577148e+00,2.318421125411987305e+00,2.216915130615234375e+00,2.209834814071655273e+00,2.228241920471191406e+00,2.259709119796752930e+00,2.285665988922119141e+00,2.297032356262207031e+00,2.304132461547851562e+00,2.309135913848876953e+00,2.312734842300415039e+00,2.317439079284667969e+00,2.323028802871704102e+00,2.327260971069335938e+00,2.332631587982177734e+00,2.336884498596191406e+00,2.338710784912109375e+00,2.341446876525878906e+00,2.344143629074096680e+00,2.347504377365112305e+00,2.350929737091064453e+00,2.354649782180786133e+00,2.358296155929565430e+00,2.361413955688476562e+00,2.364999771118164062e+00,2.368049383163452148e+00,2.370626926422119141e+00,2.373043298721313477e+00,2.375182867050170898e+00,2.377178192138671875e+00,2.379511356353759766e+00,2.382410764694213867e+00,2.385379791259765625e+00,2.388909339904785156e+00,2.391964912414550781e+00,2.394365310668945312e+00,2.396992683410644531e+00,2.399039268493652344e+00,2.402560472488403320e+00,2.405901432037353516e+00,2.408967018127441406e+00,2.411672115325927734e+00,2.415045261383056641e+00,2.418662309646606445e+00,2.420652389526367188e+00,2.422255039215087891e+00,2.423634290695190430e+00,2.424731016159057617e+00,2.427604913711547852e+00,2.431646823883056641e+00,2.439015626907348633e+00,2.452797889709472656e+00,2.461313009262084961e+00,2.472588539123535156e+00,2.479716300964355469e+00,2.486455440521240234e+00,2.496888637542724609e+00,2.516633033752441406e+00,2.530415773391723633e+00,2.537400007247924805e+00,2.544836282730102539e+00,2.549985408782958984e+00,2.562885046005249023e+00,2.583922147750854492e+00,2.611879825592041016e+00,2.617973089218139648e+00,2.633809804916381836e+00,2.657056331634521484e+00,2.673616886138916016e+00,2.687205791473388672e+00,2.696983098983764648e+00,2.707556724548339844e+00,2.716918945312500000e+00,2.725974798202514648e+00,2.733555793762207031e+00,2.741400718688964844e+00,2.745925188064575195e+00,2.749072313308715820e+00,2.751608371734619141e+00,2.752880334854125977e+00,2.753140926361083984e+00,2.751745700836181641e+00,2.750958919525146484e+00,2.744509220123291016e+00
2.132923364639282227e+00,2.136267662048339844e+00,2.138128519058227539e+00,2.143030643463134766e+00,2.154374599456787109e+00,2.170732498168945312e+00,2.173963069915771484e+00,2.175101518630981445e+00,2.175145387649536133e+00,2.177569389343261719e+00,2.180941581726074219e+00,2.189349412918090820e+00,2.194370508193969727e+00,2.203191041946411133e+00,2.210725784301757812e+00,2.227776527404785156e+00,2.234859466552734375e+00,2.242040634155273438e+00,2.250520229339599609e+00,2.258792877197265625e+00,2.269742012023925781e+00,2.280721902847290039e+00,2.293471336364746094e+00,2.302450656890869141e+00,2.311508893966674805e+00,2.320394992828369141e+00,2.329352378845214844e+00,2.337129592895507812e+00,2.343991518020629883e+00,2.350316286087036133e+00,2.356886863708496094e+00,2.359509706497192383e+00,2.361291885375976562e+00,2.360770940780639648e+00,2.360737562179565430e+00,2.359066009521484375e+00,2.314554214477539062e+00,2.212578773498535156e+00,2.205243587493896484e+00,2.222362756729125977e+00,2.254818201065063477e+00,2.284062623977661133e+00,2.295665025711059570e+00,2.302271604537963867e+00,2.307058811187744141e+00,2.311100959777832031e+00,2.316271543502807617e+00,2.322419881820678711e+00,2.327081441879272461e+00,2.332962989807128906e+00,2.337494850158691406e+00,2.339618682861328125e+00,2.342386960983276367e+00,2.345028162002563477e+00,2.348546266555786133e+00,2.351893424987792969e+00,2.355532646179199219e+00,2.359017133712768555e+00,2.362049818038940430e+00,2.365367174148559570e+00,2.368294000625610352e+00,2.370776414871215820e+00,2.373031139373779297e+00,2.375204563140869141e+00,2.377242803573608398e+00,2.379676103591918945e+00,2.382550001144409180e+00,2.385575294494628906e+00,2.389265537261962891e+00,2.392493247985839844e+00,2.395035743713378906e+00,2.397837162017822266e+00,2.399938583374023438e+00,2.403419017791748047e+00,2.406715154647827148e+00,2.409641981124877930e+00,2.412446022033691406e+00,2.415650367736816406e+00,2.418763637542724609e+00,2.420893192291259766e+00,2.422547101974487305e+00,2.424016952514648438e+00,2.425161361694335938e+00,2.428531885147094727e+00,2.432547092437744141e+00,2.439092159271240234e+00,2.454088687896728516e+00,2.462909936904907227e+00,2.474267959594726562e+00,2.481972217559814453e+00,2.487718582153320312e+00,2.497814893722534180e+00,2.518502712249755859e+00,2.533764123916625977e+00,2.542348146438598633e+00,2.550184726715087891e+00,2.555397272109985352e+00,2.567039728164672852e+00,2.586111545562744141e+00,2.615246534347534180e+00,2.621259212493896484e+00,2.636526584625244141e+00,2.661459445953369141e+00,2.677436590194702148e+00,2.690845251083374023e+00,2.699427604675292969e+00,2.709847927093505859e+00,2.718593120574951172e+00,2.727312564849853516e+00,2.735106706619262695e+00,2.742635488510131836e+00,2.746875524520874023e+00,2.750401020050048828e+00,2.752985954284667969e+00,2.753775119781494141e+00,2.754207134246826172e+00,2.752647161483764648e+00,2.751403808593750000e+00,2.742672681808471680e+00
2.134802341461181641e+00,2.138108253479003906e+00,2.139277696609497070e+00,2.143374204635620117e+00,2.153712987899780273e+00,2.172177076339721680e+00,2.176050662994384766e+00,2.177018642425537109e+00,2.177495956420898438e+00,2.179663896560668945e+00,2.183809995651245117e+00,2.191684961318969727e+00,2.195336818695068359e+00,2.203200578689575195e+00,2.211084842681884766e+00,2.227087497711181641e+00,2.234513282775878906e+00,2.242148876190185547e+00,2.251087427139282227e+00,2.258360147476196289e+00,2.269191503524780273e+00,2.279567718505859375e+00,2.291657209396362305e+00,2.300673723220825195e+00,2.309149026870727539e+00,2.317720890045166016e+00,2.326587915420532227e+00,2.334423780441284180e+00,2.341357946395874023e+00,2.347708702087402344e+00,2.354066848754882812e+00,2.356532335281372070e+00,2.358670711517333984e+00,2.357937097549438477e+00,2.358643054962158203e+00,2.355607509613037109e+00,2.310292482376098633e+00,2.211981296539306641e+00,2.201516628265380859e+00,2.217308282852172852e+00,2.249026536941528320e+00,2.283466577529907227e+00,2.295707941055297852e+00,2.301463365554809570e+00,2.306421279907226562e+00,2.310790061950683594e+00,2.316104888916015625e+00,2.322135210037231445e+00,2.327127933502197266e+00,2.333371639251708984e+00,2.338487386703491211e+00,2.340976715087890625e+00,2.343790054321289062e+00,2.346601009368896484e+00,2.350246667861938477e+00,2.353629350662231445e+00,2.357056379318237305e+00,2.360133171081542969e+00,2.363052845001220703e+00,2.366183280944824219e+00,2.368987798690795898e+00,2.371464490890502930e+00,2.373621940612792969e+00,2.375896453857421875e+00,2.377764940261840820e+00,2.380428314208984375e+00,2.383430242538452148e+00,2.386387825012207031e+00,2.390169858932495117e+00,2.393282413482666016e+00,2.395902156829833984e+00,2.398674249649047852e+00,2.400843858718872070e+00,2.404182910919189453e+00,2.407632350921630859e+00,2.410920619964599609e+00,2.413787126541137695e+00,2.416960239410400391e+00,2.419910192489624023e+00,2.421696424484252930e+00,2.423564195632934570e+00,2.424800157546997070e+00,2.425196409225463867e+00,2.429785251617431641e+00,2.434426307678222656e+00,2.440478324890136719e+00,2.454195737838745117e+00,2.463958978652954102e+00,2.475809574127197266e+00,2.482968568801879883e+00,2.489719629287719727e+00,2.499862194061279297e+00,2.520866155624389648e+00,2.536876440048217773e+00,2.544978141784667969e+00,2.553949356079101562e+00,2.559168815612792969e+00,2.569144964218139648e+00,2.588321447372436523e+00,2.618809223175048828e+00,2.623765945434570312e+00,2.638855695724487305e+00,2.666127204895019531e+00,2.680355787277221680e+00,2.693907976150512695e+00,2.702320575714111328e+00,2.712119102478027344e+00,2.720569372177124023e+00,2.729486703872680664e+00,2.737259626388549805e+00,2.744151115417480469e+00,2.748123168945312500e+00,2.751433610916137695e+00,2.754381656646728516e+00,2.755193471908569336e+00,2.755922317504882812e+00,2.754573345184326172e+00,2.751530647277832031e+00,2.740230083465576172e+00
2.136309623718261719e+00,2.139908075332641602e+00,2.140602827072143555e+00,2.143763065338134766e+00,2.153810024261474609e+00,2.173521995544433594e+00,2.178611278533935547e+00,2.179683923721313477e+00,2.180479526519775391e+00,2.182399034500122070e+00,2.187650918960571289e+00,2.195861101150512695e+00,2.198213338851928711e+00,2.204210758209228516e+00,2.212275743484497070e+00,2.227535247802734375e+00,2.236225843429565430e+00,2.243386745452880859e+00,2.251354455947875977e+00,2.257464408874511719e+00,2.267562389373779297e+00,2.277529716491699219e+00,2.289689779281616211e+00,2.298517942428588867e+00,2.306936740875244141e+00,2.315491676330566406e+00,2.324297428131103516e+00,2.331885814666748047e+00,2.338749647140502930e+00,2.345273971557617188e+00,2.351535558700561523e+00,2.353860378265380859e+00,2.356406450271606445e+00,2.355691909790039062e+00,2.356693267822265625e+00,2.351913928985595703e+00,2.312469005584716797e+00,2.210968732833862305e+00,2.196986198425292969e+00,2.212391853332519531e+00,2.241850852966308594e+00,2.283712625503540039e+00,2.295393228530883789e+00,2.302121400833129883e+00,2.307187080383300781e+00,2.311410427093505859e+00,2.316703557968139648e+00,2.322835445404052734e+00,2.327978134155273438e+00,2.334316015243530273e+00,2.339699506759643555e+00,2.342428684234619141e+00,2.345397472381591797e+00,2.348535537719726562e+00,2.352344274520874023e+00,2.355861663818359375e+00,2.359388351440429688e+00,2.362357854843139648e+00,2.365234613418579102e+00,2.368225574493408203e+00,2.370880365371704102e+00,2.373337745666503906e+00,2.375318050384521484e+00,2.377403736114501953e+00,2.379071474075317383e+00,2.381490945816040039e+00,2.384392261505126953e+00,2.387342929840087891e+00,2.390905618667602539e+00,2.393919229507446289e+00,2.396629810333251953e+00,2.399479866027832031e+00,2.401830673217773438e+00,2.405275821685791016e+00,2.408717155456542969e+00,2.412210464477539062e+00,2.415369510650634766e+00,2.418657302856445312e+00,2.422086715698242188e+00,2.424062728881835938e+00,2.425724744796752930e+00,2.427391290664672852e+00,2.427432775497436523e+00,2.432754755020141602e+00,2.438215255737304688e+00,2.443881273269653320e+00,2.457293510437011719e+00,2.466908216476440430e+00,2.477877140045166016e+00,2.484514236450195312e+00,2.491578578948974609e+00,2.503116607666015625e+00,2.523736953735351562e+00,2.538081407546997070e+00,2.546668767929077148e+00,2.556751251220703125e+00,2.561746120452880859e+00,2.570944786071777344e+00,2.591975212097167969e+00,2.623914241790771484e+00,2.628613233566284180e+00,2.644201040267944336e+00,2.670311927795410156e+00,2.683415412902832031e+00,2.696929931640625000e+00,2.705233812332153320e+00,2.714857816696166992e+00,2.722953557968139648e+00,2.731885910034179688e+00,2.739678382873535156e+00,2.746516227722167969e+00,2.750509738922119141e+00,2.753204345703125000e+00,2.756124973297119141e+00,2.756502628326416016e+00,2.757157564163208008e+00,2.755709171295166016e+00,2.750212907791137695e+00,2.736603498458862305e+00
2.138214349746704102e+00,2.141583442687988281e+00,2.142889261245727539e+00,2.146135091781616211e+00,2.154877185821533203e+00,2.173434972763061523e+00,2.181008338928222656e+00,2.182276487350463867e+00,2.183125972747802734e+00,2.184966325759887695e+00,2.190531969070434570e+00,2.199558496475219727e+00,2.201194286346435547e+00,2.205543756484985352e+00,2.212789058685302734e+00,2.227290391921997070e+00,2.236905097961425781e+00,2.243284463882446289e+00,2.249989748001098633e+00,2.255268096923828125e+00,2.265089511871337891e+00,2.275225162506103516e+00,2.287724494934082031e+00,2.296289920806884766e+00,2.304583311080932617e+00,2.312904119491577148e+00,2.321372270584106445e+00,2.328576087951660156e+00,2.335240364074707031e+00,2.342050075531005859e+00,2.348415613174438477e+00,2.351047754287719727e+00,2.354190826416015625e+00,2.353117465972900391e+00,2.353271007537841797e+00,2.348662376403808594e+00,2.317076921463012695e+00,2.207910299301147461e+00,2.190677404403686523e+00,2.208064794540405273e+00,2.238034486770629883e+00,2.284250259399414062e+00,2.295831203460693359e+00,2.303403854370117188e+00,2.307853460311889648e+00,2.311919212341308594e+00,2.317136049270629883e+00,2.323303699493408203e+00,2.328537940979003906e+00,2.334900856018066406e+00,2.340534210205078125e+00,2.343714714050292969e+00,2.346998691558837891e+00,2.350436925888061523e+00,2.354290246963500977e+00,2.357804775238037109e+00,2.361380100250244141e+00,2.364260196685791016e+00,2.367119073867797852e+00,2.369947671890258789e+00,2.372570276260375977e+00,2.374969005584716797e+00,2.376918077468872070e+00,2.378832817077636719e+00,2.380318641662597656e+00,2.382651329040527344e+00,2.385288953781127930e+00,2.388217926025390625e+00,2.391709804534912109e+00,2.394661426544189453e+00,2.397315263748168945e+00,2.400260210037231445e+00,2.402853488922119141e+00,2.406407356262207031e+00,2.409930944442749023e+00,2.413316249847412109e+00,2.416560411453247070e+00,2.419942855834960938e+00,2.423427343368530273e+00,2.425391435623168945e+00,2.427768945693969727e+00,2.429675102233886719e+00,2.430809736251831055e+00,2.435385704040527344e+00,2.441466331481933594e+00,2.446006059646606445e+00,2.460469484329223633e+00,2.469327926635742188e+00,2.480123043060302734e+00,2.485639810562133789e+00,2.492671966552734375e+00,2.504840612411499023e+00,2.523359775543212891e+00,2.537815809249877930e+00,2.546812057495117188e+00,2.557435512542724609e+00,2.563529014587402344e+00,2.573314189910888672e+00,2.591563701629638672e+00,2.627468347549438477e+00,2.633200645446777344e+00,2.648599147796630859e+00,2.673438787460327148e+00,2.686401367187500000e+00,2.698758602142333984e+00,2.708371639251708984e+00,2.717271804809570312e+00,2.725351572036743164e+00,2.734101533889770508e+00,2.741626024246215820e+00,2.748312473297119141e+00,2.752358913421630859e+00,2.755286931991577148e+00,2.758018255233764648e+00,2.758582115173339844e+00,2.759240150451660156e+00,2.756928682327270508e+00,2.750858783721923828e+00,2.734593391418457031e+00
2.139178514480590820e+00,2.141906023025512695e+00,2.142923355102539062e+00,2.146236181259155273e+00,2.153901815414428711e+00,2.170935869216918945e+00,2.181096076965332031e+00,2.182517290115356445e+00,2.183271884918212891e+00,2.185122489929199219e+00,2.190219163894653320e+00,2.199476480484008789e+00,2.200517416000366211e+00,2.204152584075927734e+00,2.210438013076782227e+00,2.223423957824707031e+00,2.233357667922973633e+00,2.239423751831054688e+00,2.246119260787963867e+00,2.250733852386474609e+00,2.260189771652221680e+00,2.270479202270507812e+00,2.283367395401000977e+00,2.292399168014526367e+00,2.300159692764282227e+00,2.308114051818847656e+00,2.316695451736450195e+00,2.323821783065795898e+00,2.330464363098144531e+00,2.337288856506347656e+00,2.343529224395751953e+00,2.347001552581787109e+00,2.350534200668334961e+00,2.348605394363403320e+00,2.347736597061157227e+00,2.343561887741088867e+00,2.320806026458740234e+00,2.207450389862060547e+00,2.187661170959472656e+00,2.205294370651245117e+00,2.235759019851684570e+00,2.283676385879516602e+00,2.295958042144775391e+00,2.303802728652954102e+00,2.307919979095458984e+00,2.311937808990478516e+00,2.317039251327514648e+00,2.322814226150512695e+00,2.328139543533325195e+00,2.334560155868530273e+00,2.340513229370117188e+00,2.344045639038085938e+00,2.347568511962890625e+00,2.351367950439453125e+00,2.355483531951904297e+00,2.359190464019775391e+00,2.362842321395874023e+00,2.365702390670776367e+00,2.368573188781738281e+00,2.371469259262084961e+00,2.374205827713012695e+00,2.376629114151000977e+00,2.378325462341308594e+00,2.380029439926147461e+00,2.381345033645629883e+00,2.383415699005126953e+00,2.385746240615844727e+00,2.388637304306030273e+00,2.391945362091064453e+00,2.394846439361572266e+00,2.397731781005859375e+00,2.400723695755004883e+00,2.403495550155639648e+00,2.407077550888061523e+00,2.410553216934204102e+00,2.414126157760620117e+00,2.417619466781616211e+00,2.421416997909545898e+00,2.425373792648315430e+00,2.427758216857910156e+00,2.430363655090332031e+00,2.432653427124023438e+00,2.434695482254028320e+00,2.438917398452758789e+00,2.444745540618896484e+00,2.448606014251708984e+00,2.462951421737670898e+00,2.472404003143310547e+00,2.481658220291137695e+00,2.486672163009643555e+00,2.493712425231933594e+00,2.505352258682250977e+00,2.522444248199462891e+00,2.537129878997802734e+00,2.546489953994750977e+00,2.557398796081542969e+00,2.564188957214355469e+00,2.575108528137207031e+00,2.592598199844360352e+00,2.632783889770507812e+00,2.637025833129882812e+00,2.652596950531005859e+00,2.676356792449951172e+00,2.689130783081054688e+00,2.699658870697021484e+00,2.709865808486938477e+00,2.719496488571166992e+00,2.727661132812500000e+00,2.736690759658813477e+00,2.744168043136596680e+00,2.750488996505737305e+00,2.754119873046875000e+00,2.756671190261840820e+00,2.759138107299804688e+00,2.759603977203369141e+00,2.760427236557006836e+00,2.757645845413208008e+00,2.751969099044799805e+00,2.732707500457763672e+00
2.139906167984008789e+00,2.142623186111450195e+00,2.143342018127441406e+00,2.146298646926879883e+00,2.152767181396484375e+00,2.168381452560424805e+00,2.180333375930786133e+00,2.181800127029418945e+00,2.182307243347167969e+00,2.184353828430175781e+00,2.189282894134521484e+00,2.198085546493530273e+00,2.199137926101684570e+00,2.202294349670410156e+00,2.207476615905761719e+00,2.218925952911376953e+00,2.228496313095092773e+00,2.234568834304809570e+00,2.241319656372070312e+00,2.245273590087890625e+00,2.254958391189575195e+00,2.265814065933227539e+00,2.279189109802246094e+00,2.288477420806884766e+00,2.295843601226806641e+00,2.303485870361328125e+00,2.311739683151245117e+00,2.318764209747314453e+00,2.325106143951416016e+00,2.331833839416503906e+00,2.337959527969360352e+00,2.342081785202026367e+00,2.346324205398559570e+00,2.344246864318847656e+00,2.342484474182128906e+00,2.338001489639282227e+00,2.317774534225463867e+00,2.208283185958862305e+00,2.188550472259521484e+00,2.204187393188476562e+00,2.235638380050659180e+00,2.283001899719238281e+00,2.296790122985839844e+00,2.304372787475585938e+00,2.308384656906127930e+00,2.312637567520141602e+00,2.317369937896728516e+00,2.322935104370117188e+00,2.328293561935424805e+00,2.334774255752563477e+00,2.341090917587280273e+00,2.344776868820190430e+00,2.348586797714233398e+00,2.352778673171997070e+00,2.357076883316040039e+00,2.360916376113891602e+00,2.364681243896484375e+00,2.367727756500244141e+00,2.370692014694213867e+00,2.373630285263061523e+00,2.376237869262695312e+00,2.378430128097534180e+00,2.379920721054077148e+00,2.381353378295898438e+00,2.382478237152099609e+00,2.384400367736816406e+00,2.386495828628540039e+00,2.389318466186523438e+00,2.392542839050292969e+00,2.395368814468383789e+00,2.398301601409912109e+00,2.401402473449707031e+00,2.404117584228515625e+00,2.407542467117309570e+00,2.411040544509887695e+00,2.414669990539550781e+00,2.418260097503662109e+00,2.422240495681762695e+00,2.426424741744995117e+00,2.429112911224365234e+00,2.432221889495849609e+00,2.435335636138916016e+00,2.437815666198730469e+00,2.441991090774536133e+00,2.447549581527709961e+00,2.451511383056640625e+00,2.464850902557373047e+00,2.475223541259765625e+00,2.482659339904785156e+00,2.487344741821289062e+00,2.494332075119018555e+00,2.505634069442749023e+00,2.521409749984741211e+00,2.536285638809204102e+00,2.546241283416748047e+00,2.556981563568115234e+00,2.564277887344360352e+00,2.575649499893188477e+00,2.595499992370605469e+00,2.637260198593139648e+00,2.641065597534179688e+00,2.656068086624145508e+00,2.678428411483764648e+00,2.692924261093139648e+00,2.701828718185424805e+00,2.711761474609375000e+00,2.721556425094604492e+00,2.729631423950195312e+00,2.738843441009521484e+00,2.746367692947387695e+00,2.752088546752929688e+00,2.755478620529174805e+00,2.757909536361694336e+00,2.760194778442382812e+00,2.760789871215820312e+00,2.761788845062255859e+00,2.758958101272583008e+00,2.754058837890625000e+00,2.729483604431152344e+00
2.141365528106689453e+00,2.144241571426391602e+00,2.145361900329589844e+00,2.147723436355590820e+00,2.153610706329345703e+00,2.167204856872558594e+00,2.180164575576782227e+00,2.181622743606567383e+00,2.182290792465209961e+00,2.184227705001831055e+00,2.188659906387329102e+00,2.197586297988891602e+00,2.198851108551025391e+00,2.201473236083984375e+00,2.205982208251953125e+00,2.214602231979370117e+00,2.223535299301147461e+00,2.229679822921752930e+00,2.237123966217041016e+00,2.241159915924072266e+00,2.250790834426879883e+00,2.262476921081542969e+00,2.274963140487670898e+00,2.284396886825561523e+00,2.291324853897094727e+00,2.298865318298339844e+00,2.306607007980346680e+00,2.313221693038940430e+00,2.319407224655151367e+00,2.325866222381591797e+00,2.331806182861328125e+00,2.336469888687133789e+00,2.341061830520629883e+00,2.338551759719848633e+00,2.335525989532470703e+00,2.330931186676025391e+00,2.310178756713867188e+00,2.208626747131347656e+00,2.193306684494018555e+00,2.205692052841186523e+00,2.239147901535034180e+00,2.287280797958374023e+00,2.301086187362670898e+00,2.308108329772949219e+00,2.312050580978393555e+00,2.316281557083129883e+00,2.320561408996582031e+00,2.325846910476684570e+00,2.331280946731567383e+00,2.337579727172851562e+00,2.343927860260009766e+00,2.347785472869873047e+00,2.351737260818481445e+00,2.355926752090454102e+00,2.360263586044311523e+00,2.364221572875976562e+00,2.367927074432373047e+00,2.370902776718139648e+00,2.373736143112182617e+00,2.376586198806762695e+00,2.379068851470947266e+00,2.381184816360473633e+00,2.382620811462402344e+00,2.383959770202636719e+00,2.384985446929931641e+00,2.386699914932250977e+00,2.388720750808715820e+00,2.391254186630249023e+00,2.394363880157470703e+00,2.397061824798583984e+00,2.399796009063720703e+00,2.402829408645629883e+00,2.405478954315185547e+00,2.408981800079345703e+00,2.412584304809570312e+00,2.416276454925537109e+00,2.419838905334472656e+00,2.424122810363769531e+00,2.428427696228027344e+00,2.431104660034179688e+00,2.434468269348144531e+00,2.437616825103759766e+00,2.440150499343872070e+00,2.444295167922973633e+00,2.449370861053466797e+00,2.454383611679077148e+00,2.466428995132446289e+00,2.476487874984741211e+00,2.483567714691162109e+00,2.487494468688964844e+00,2.494404792785644531e+00,2.505279064178466797e+00,2.520236730575561523e+00,2.535131692886352539e+00,2.545675754547119141e+00,2.556653976440429688e+00,2.564780235290527344e+00,2.577065944671630859e+00,2.596910953521728516e+00,2.641358137130737305e+00,2.644964694976806641e+00,2.658970832824707031e+00,2.680383920669555664e+00,2.695469379425048828e+00,2.704584360122680664e+00,2.713288545608520508e+00,2.723594903945922852e+00,2.732128381729125977e+00,2.741276741027832031e+00,2.748669385910034180e+00,2.754224777221679688e+00,2.757663011550903320e+00,2.759692907333374023e+00,2.761570453643798828e+00,2.762236833572387695e+00,2.763465642929077148e+00,2.761294603347778320e+00,2.755970478057861328e+00,2.727434158325195312e+00
2.142750501632690430e+00,2.145388126373291016e+00,2.146838426589965820e+00,2.149292945861816406e+00,2.154466390609741211e+00,2.165968418121337891e+00,2.179337501525878906e+00,2.180804252624511719e+00,2.181472539901733398e+00,2.183368444442749023e+00,2.186946153640747070e+00,2.196444511413574219e+00,2.198302984237670898e+00,2.200220584869384766e+00,2.204375743865966797e+00,2.210834264755249023e+00,2.218536138534545898e+00,2.224066019058227539e+00,2.232183456420898438e+00,2.236762523651123047e+00,2.246120691299438477e+00,2.258077621459960938e+00,2.269666910171508789e+00,2.279361009597778320e+00,2.286312818527221680e+00,2.293545961380004883e+00,2.300932407379150391e+00,2.307231187820434570e+00,2.313342332839965820e+00,2.319516181945800781e+00,2.325132846832275391e+00,2.330328941345214844e+00,2.334817886352539062e+00,2.331802606582641602e+00,2.328446388244628906e+00,2.323808431625366211e+00,2.301003217697143555e+00,2.210081100463867188e+00,2.197513818740844727e+00,2.207218885421752930e+00,2.241425037384033203e+00,2.292295694351196289e+00,2.305215358734130859e+00,2.312369585037231445e+00,2.316165924072265625e+00,2.320094823837280273e+00,2.324177503585815430e+00,2.329260349273681641e+00,2.334666252136230469e+00,2.340975999832153320e+00,2.347241878509521484e+00,2.351115226745605469e+00,2.355181455612182617e+00,2.359410047531127930e+00,2.363972663879394531e+00,2.367940425872802734e+00,2.371606349945068359e+00,2.374388694763183594e+00,2.377089500427246094e+00,2.379855394363403320e+00,2.382271528244018555e+00,2.384404420852661133e+00,2.385646581649780273e+00,2.387017250061035156e+00,2.387908697128295898e+00,2.389537096023559570e+00,2.391558170318603516e+00,2.393763065338134766e+00,2.396659612655639648e+00,2.399174928665161133e+00,2.401734828948974609e+00,2.404685020446777344e+00,2.407352209091186523e+00,2.410669326782226562e+00,2.414155483245849609e+00,2.417701482772827148e+00,2.421222448348999023e+00,2.425762176513671875e+00,2.430042505264282227e+00,2.432961225509643555e+00,2.436187028884887695e+00,2.439286231994628906e+00,2.441976070404052734e+00,2.446003675460815430e+00,2.450738430023193359e+00,2.456348419189453125e+00,2.467729091644287109e+00,2.477483987808227539e+00,2.484448194503784180e+00,2.488182544708251953e+00,2.495198488235473633e+00,2.505938768386840820e+00,2.520400285720825195e+00,2.534828901290893555e+00,2.545435667037963867e+00,2.556383609771728516e+00,2.564619064331054688e+00,2.577821016311645508e+00,2.598423480987548828e+00,2.645337581634521484e+00,2.648420333862304688e+00,2.661673069000244141e+00,2.681419134140014648e+00,2.696818351745605469e+00,2.705994367599487305e+00,2.714473962783813477e+00,2.725042104721069336e+00,2.733974695205688477e+00,2.743063926696777344e+00,2.750448703765869141e+00,2.756399631500244141e+00,2.759711980819702148e+00,2.761306047439575195e+00,2.763054132461547852e+00,2.763640642166137695e+00,2.764914035797119141e+00,2.763347148895263672e+00,2.755690336227416992e+00,2.726768732070922852e+00
2.144318103790283203e+00,2.146762609481811523e+00,2.148635625839233398e+00,2.150681495666503906e+00,2.155714035034179688e+00,2.165546417236328125e+00,2.179030418395996094e+00,2.180792093276977539e+00,2.182065010070800781e+00,2.184123992919921875e+00,2.187592983245849609e+00,2.197052240371704102e+00,2.199704408645629883e+00,2.201648950576782227e+00,2.206142663955688477e+00,2.211299180984497070e+00,2.217150449752807617e+00,2.223072290420532227e+00,2.231465578079223633e+00,2.236398458480834961e+00,2.245235681533813477e+00,2.257262706756591797e+00,2.267533063888549805e+00,2.276903629302978516e+00,2.284471273422241211e+00,2.291478395462036133e+00,2.298679590225219727e+00,2.304676771163940430e+00,2.310655355453491211e+00,2.316472530364990234e+00,2.321892261505126953e+00,2.327486515045166016e+00,2.332287788391113281e+00,2.328920841217041016e+00,2.324699163436889648e+00,2.320355653762817383e+00,2.296089887619018555e+00,2.217365503311157227e+00,2.202358007431030273e+00,2.211342334747314453e+00,2.245280981063842773e+00,2.297540187835693359e+00,2.310808181762695312e+00,2.318275928497314453e+00,2.322298526763916016e+00,2.326004981994628906e+00,2.329889297485351562e+00,2.334750175476074219e+00,2.339909791946411133e+00,2.346083164215087891e+00,2.352222442626953125e+00,2.356001138687133789e+00,2.360221624374389648e+00,2.364509820938110352e+00,2.368911266326904297e+00,2.372766256332397461e+00,2.376290321350097656e+00,2.379072427749633789e+00,2.381841659545898438e+00,2.384546279907226562e+00,2.386911153793334961e+00,2.389024257659912109e+00,2.390262842178344727e+00,2.391704559326171875e+00,2.392495632171630859e+00,2.394146680831909180e+00,2.396013736724853516e+00,2.397961854934692383e+00,2.400607109069824219e+00,2.402783870697021484e+00,2.405205011367797852e+00,2.407852411270141602e+00,2.410254478454589844e+00,2.413426160812377930e+00,2.416652917861938477e+00,2.420028448104858398e+00,2.423561334609985352e+00,2.427859067916870117e+00,2.431895494461059570e+00,2.434767007827758789e+00,2.437852859497070312e+00,2.440712213516235352e+00,2.443304538726806641e+00,2.447317361831665039e+00,2.451627254486083984e+00,2.456975221633911133e+00,2.467948436737060547e+00,2.477181911468505859e+00,2.484260082244873047e+00,2.488337516784667969e+00,2.495342016220092773e+00,2.506111383438110352e+00,2.519477605819702148e+00,2.533074378967285156e+00,2.543211936950683594e+00,2.553901910781860352e+00,2.562192440032958984e+00,2.576591730117797852e+00,2.597838640213012695e+00,2.645874023437500000e+00,2.650520086288452148e+00,2.662084341049194336e+00,2.680128097534179688e+00,2.696355581283569336e+00,2.706267118453979492e+00,2.715125799179077148e+00,2.725704431533813477e+00,2.734332323074340820e+00,2.743869066238403320e+00,2.751266479492187500e+00,2.757160663604736328e+00,2.760550022125244141e+00,2.762144088745117188e+00,2.763751268386840820e+00,2.764338970184326172e+00,2.765688419342041016e+00,2.763758659362792969e+00,2.754707574844360352e+00,2.726554632186889648e+00
2.145375728607177734e+00,2.148113489151000977e+00,2.150444746017456055e+00,2.152129650115966797e+00,2.157573938369750977e+00,2.165683746337890625e+00,2.178837776184082031e+00,2.181509256362915039e+00,2.182995080947875977e+00,2.184861660003662109e+00,2.188427925109863281e+00,2.198660135269165039e+00,2.202411413192749023e+00,2.204898834228515625e+00,2.209225893020629883e+00,2.211902618408203125e+00,2.217874288558959961e+00,2.224024534225463867e+00,2.232475996017456055e+00,2.237763404846191406e+00,2.245976209640502930e+00,2.257601499557495117e+00,2.266876459121704102e+00,2.275264024734497070e+00,2.282997608184814453e+00,2.289646387100219727e+00,2.296355485916137695e+00,2.302201986312866211e+00,2.307996988296508789e+00,2.313474655151367188e+00,2.318110704421997070e+00,2.323587417602539062e+00,2.329094886779785156e+00,2.326106071472167969e+00,2.322118282318115234e+00,2.317495584487915039e+00,2.293048143386840820e+00,2.224192380905151367e+00,2.208301782608032227e+00,2.214294910430908203e+00,2.248209714889526367e+00,2.302142858505249023e+00,2.316791296005249023e+00,2.324649810791015625e+00,2.328615903854370117e+00,2.332344770431518555e+00,2.336348772048950195e+00,2.340997219085693359e+00,2.345992803573608398e+00,2.351965904235839844e+00,2.357753753662109375e+00,2.361514091491699219e+00,2.365667343139648438e+00,2.369893074035644531e+00,2.374116897583007812e+00,2.377825975418090820e+00,2.381218194961547852e+00,2.384163618087768555e+00,2.386946678161621094e+00,2.389503002166748047e+00,2.391903877258300781e+00,2.393934488296508789e+00,2.395316123962402344e+00,2.396854400634765625e+00,2.397917032241821289e+00,2.399539947509765625e+00,2.401149988174438477e+00,2.402829170227050781e+00,2.405077457427978516e+00,2.406960010528564453e+00,2.409140110015869141e+00,2.411309957504272461e+00,2.413367748260498047e+00,2.416337966918945312e+00,2.419223070144653320e+00,2.422502040863037109e+00,2.425792932510375977e+00,2.429833173751831055e+00,2.433674097061157227e+00,2.436249017715454102e+00,2.439128637313842773e+00,2.441854953765869141e+00,2.444238662719726562e+00,2.448420524597167969e+00,2.452683210372924805e+00,2.457328557968139648e+00,2.467824459075927734e+00,2.477199316024780273e+00,2.483912467956542969e+00,2.488239526748657227e+00,2.495687961578369141e+00,2.506203174591064453e+00,2.519078254699707031e+00,2.531933069229125977e+00,2.541316270828247070e+00,2.550930738449096680e+00,2.559361934661865234e+00,2.574643611907958984e+00,2.596123695373535156e+00,2.645712375640869141e+00,2.650626182556152344e+00,2.661244392395019531e+00,2.678715705871582031e+00,2.695650100708007812e+00,2.706707239151000977e+00,2.715584754943847656e+00,2.726170063018798828e+00,2.734825372695922852e+00,2.744570970535278320e+00,2.751880407333374023e+00,2.757653236389160156e+00,2.760998010635375977e+00,2.762583017349243164e+00,2.764252424240112305e+00,2.764893770217895508e+00,2.766119956970214844e+00,2.763934850692749023e+00,2.754777193069458008e+00,2.726705312728881836e+00
2.146533250808715820e+00,2.149564981460571289e+00,2.152295351028442383e+00,2.153833866119384766e+00,2.159204244613647461e+00,2.165419816970825195e+00,2.178371191024780273e+00,2.182397842407226562e+00,2.183332920074462891e+00,2.184773921966552734e+00,2.187952518463134766e+00,2.199663162231445312e+00,2.204113721847534180e+00,2.207364320755004883e+00,2.211168766021728516e+00,2.212884426116943359e+00,2.218182802200317383e+00,2.224389076232910156e+00,2.232218980789184570e+00,2.237061500549316406e+00,2.244804620742797852e+00,2.255554676055908203e+00,2.264300346374511719e+00,2.272197723388671875e+00,2.278875589370727539e+00,2.285070419311523438e+00,2.291483879089355469e+00,2.296853780746459961e+00,2.302783250808715820e+00,2.307747602462768555e+00,2.312276124954223633e+00,2.317977190017700195e+00,2.323897838592529297e+00,2.322212696075439453e+00,2.319253444671630859e+00,2.313404083251953125e+00,2.290643453598022461e+00,2.230855941772460938e+00,2.213027715682983398e+00,2.217162609100341797e+00,2.248695850372314453e+00,2.303963422775268555e+00,2.323049783706665039e+00,2.330878973007202148e+00,2.334672689437866211e+00,2.339025735855102539e+00,2.342683792114257812e+00,2.346997499465942383e+00,2.351841688156127930e+00,2.357584714889526367e+00,2.363263130187988281e+00,2.367049455642700195e+00,2.371119499206542969e+00,2.375336408615112305e+00,2.379388809204101562e+00,2.382880210876464844e+00,2.386165380477905273e+00,2.389231681823730469e+00,2.392060995101928711e+00,2.394644260406494141e+00,2.397185564041137695e+00,2.399087905883789062e+00,2.400525093078613281e+00,2.401990175247192383e+00,2.403114080429077148e+00,2.404805421829223633e+00,2.406352996826171875e+00,2.407979488372802734e+00,2.409956216812133789e+00,2.411576986312866211e+00,2.413607120513916016e+00,2.415252447128295898e+00,2.417003393173217773e+00,2.419659376144409180e+00,2.422189235687255859e+00,2.425289154052734375e+00,2.428118228912353516e+00,2.431792259216308594e+00,2.435323953628540039e+00,2.437728643417358398e+00,2.440376758575439453e+00,2.443042516708374023e+00,2.445440530776977539e+00,2.449648857116699219e+00,2.454459905624389648e+00,2.458427906036376953e+00,2.469054937362670898e+00,2.478813886642456055e+00,2.485066890716552734e+00,2.489615678787231445e+00,2.497469902038574219e+00,2.508087396621704102e+00,2.520591497421264648e+00,2.532442569732666016e+00,2.541414737701416016e+00,2.550213098526000977e+00,2.558484077453613281e+00,2.575275182723999023e+00,2.597086191177368164e+00,2.646630764007568359e+00,2.652547597885131836e+00,2.663871526718139648e+00,2.681141853332519531e+00,2.697137355804443359e+00,2.708992242813110352e+00,2.718225002288818359e+00,2.729043006896972656e+00,2.737295627593994141e+00,2.746794939041137695e+00,2.753822565078735352e+00,2.759130954742431641e+00,2.762438297271728516e+00,2.763953208923339844e+00,2.766046762466430664e+00,2.767096519470214844e+00,2.768148183822631836e+00,2.765948534011840820e+00,2.756599664688110352e+00,2.728554725646972656e+00
2.147633552551269531e+00,2.150503635406494141e+00,2.153345108032226562e+00,2.154942512512207031e+00,2.160047531127929688e+00,2.165089845657348633e+00,2.176868438720703125e+00,2.182650327682495117e+00,2.183499574661254883e+00,2.184640645980834961e+00,2.188098669052124023e+00,2.200110673904418945e+00,2.204908609390258789e+00,2.209195137023925781e+00,2.212879419326782227e+00,2.214111089706420898e+00,2.218554735183715820e+00,2.224967718124389648e+00,2.232308149337768555e+00,2.237187385559082031e+00,2.244006872177124023e+00,2.253772735595703125e+00,2.261614322662353516e+00,2.269150257110595703e+00,2.275125503540039062e+00,2.281000137329101562e+00,2.286959648132324219e+00,2.291996240615844727e+00,2.297626733779907227e+00,2.302453994750976562e+00,2.306994199752807617e+00,2.312927007675170898e+00,2.319289684295654297e+00,2.318180084228515625e+00,2.315402746200561523e+00,2.309419631958007812e+00,2.288227081298828125e+00,2.234904050827026367e+00,2.217137813568115234e+00,2.219790220260620117e+00,2.249249696731567383e+00,2.309119462966918945e+00,2.330184221267700195e+00,2.337799310684204102e+00,2.341054439544677734e+00,2.346135616302490234e+00,2.350178480148315430e+00,2.354206323623657227e+00,2.358939647674560547e+00,2.364265203475952148e+00,2.369760990142822266e+00,2.373531341552734375e+00,2.377451658248901367e+00,2.381357192993164062e+00,2.385104417800903320e+00,2.388556957244873047e+00,2.391611814498901367e+00,2.394784927368164062e+00,2.397807836532592773e+00,2.400315046310424805e+00,2.402837276458740234e+00,2.404619693756103516e+00,2.406090259552001953e+00,2.407482385635375977e+00,2.408537149429321289e+00,2.410153865814208984e+00,2.411722183227539062e+00,2.413554430007934570e+00,2.415407896041870117e+00,2.416956663131713867e+00,2.418809652328491211e+00,2.419901371002197266e+00,2.421173810958862305e+00,2.423562526702880859e+00,2.425590038299560547e+00,2.428436756134033203e+00,2.431082010269165039e+00,2.434264421463012695e+00,2.437686204910278320e+00,2.439885139465332031e+00,2.442332983016967773e+00,2.445004940032958984e+00,2.447178840637207031e+00,2.451173305511474609e+00,2.456161737442016602e+00,2.459531068801879883e+00,2.470125198364257812e+00,2.480640649795532227e+00,2.486687660217285156e+00,2.491421937942504883e+00,2.499647140502929688e+00,2.510121822357177734e+00,2.522428035736083984e+00,2.533642530441284180e+00,2.542112350463867188e+00,2.550561904907226562e+00,2.558680057525634766e+00,2.576031446456909180e+00,2.597781419754028320e+00,2.647548913955688477e+00,2.653359889984130859e+00,2.666052341461181641e+00,2.683724403381347656e+00,2.699481248855590820e+00,2.711920261383056641e+00,2.721039533615112305e+00,2.731682777404785156e+00,2.739856004714965820e+00,2.749226570129394531e+00,2.755914926528930664e+00,2.761187791824340820e+00,2.764628410339355469e+00,2.765905857086181641e+00,2.767796039581298828e+00,2.768765211105346680e+00,2.769762516021728516e+00,2.767338275909423828e+00,2.757725715637207031e+00,2.731137037277221680e+00
2.147970199584960938e+00,2.150901556015014648e+00,2.153990268707275391e+00,2.156054735183715820e+00,2.160505533218383789e+00,2.165115118026733398e+00,2.175352334976196289e+00,2.182619094848632812e+00,2.182909965515136719e+00,2.184367895126342773e+00,2.186881780624389648e+00,2.199552774429321289e+00,2.204639196395874023e+00,2.210114240646362305e+00,2.214323043823242188e+00,2.214392185211181641e+00,2.218370914459228516e+00,2.225160121917724609e+00,2.231822729110717773e+00,2.237035989761352539e+00,2.242316961288452148e+00,2.251609086990356445e+00,2.258545160293579102e+00,2.266191005706787109e+00,2.271917819976806641e+00,2.277324914932250977e+00,2.283061742782592773e+00,2.287658214569091797e+00,2.292891025543212891e+00,2.297327756881713867e+00,2.301785469055175781e+00,2.308048486709594727e+00,2.314574480056762695e+00,2.313924789428710938e+00,2.310869216918945312e+00,2.304923295974731445e+00,2.284165859222412109e+00,2.236296892166137695e+00,2.218075513839721680e+00,2.219335794448852539e+00,2.248672962188720703e+00,2.313263177871704102e+00,2.336384534835815430e+00,2.344644308090209961e+00,2.346971035003662109e+00,2.351967096328735352e+00,2.356105804443359375e+00,2.360333919525146484e+00,2.364928722381591797e+00,2.370100498199462891e+00,2.375098705291748047e+00,2.378757715225219727e+00,2.382539749145507812e+00,2.386093616485595703e+00,2.389742612838745117e+00,2.392925500869750977e+00,2.395747423171997070e+00,2.398900270462036133e+00,2.401893854141235352e+00,2.404364585876464844e+00,2.406839370727539062e+00,2.408596754074096680e+00,2.410190820693969727e+00,2.411729335784912109e+00,2.412966251373291016e+00,2.414603471755981445e+00,2.416291236877441406e+00,2.418349504470825195e+00,2.420143842697143555e+00,2.421788692474365234e+00,2.423473119735717773e+00,2.424104213714599609e+00,2.425138950347900391e+00,2.427190065383911133e+00,2.429064750671386719e+00,2.431810140609741211e+00,2.434099912643432617e+00,2.436946153640747070e+00,2.440103054046630859e+00,2.442109584808349609e+00,2.444469451904296875e+00,2.447292089462280273e+00,2.449466466903686523e+00,2.453640222549438477e+00,2.458945512771606445e+00,2.462455034255981445e+00,2.472383975982666016e+00,2.484030008316040039e+00,2.490466356277465820e+00,2.495368003845214844e+00,2.503697156906127930e+00,2.514203310012817383e+00,2.526335239410400391e+00,2.537277936935424805e+00,2.545367956161499023e+00,2.553449630737304688e+00,2.561089515686035156e+00,2.579686880111694336e+00,2.601778030395507812e+00,2.650420427322387695e+00,2.655950307846069336e+00,2.670086145401000977e+00,2.688530921936035156e+00,2.703878164291381836e+00,2.716975688934326172e+00,2.725703239440917969e+00,2.736006975173950195e+00,2.744373798370361328e+00,2.753397226333618164e+00,2.760212898254394531e+00,2.765414476394653320e+00,2.768423557281494141e+00,2.770044565200805664e+00,2.771693706512451172e+00,2.772301673889160156e+00,2.773205518722534180e+00,2.770917415618896484e+00,2.761196851730346680e+00,2.737231969833374023e+00
